6302.715805 90.011952 1722.570618
6210.000000 90.000000 1724.000000
5879.700856 90.395900 1760.458932
5601.542378 90.909766 1892.539161
5490.000000 90.000000 1900.000000
5262.638808 91.777549 1831.665834
5104.821660 90.504287 1753.403478
4947.687655 90.043646 1683.401726
4635.000000 90.000000 1719.500000
3942.250894 90.315257 1815.179400
3674.964746 90.753374 1864.648259
3512.570107 93.487244 1919.624508
3330.000000 90.000000 1939.000000
3240.000000 90.000000 1941.000000
3150.000000 90.000000 1975.000000
3060.000000 90.000000 1978.000000
2970.000000 90.000000 1972.000000
2880.000000 90.000000 2039.000000
2707.017101 96.991888 2116.848071
2610.000000 90.000000 2076.000000
2520.000000 90.000000 2038.000000
2430.000000 90.000000 2038.000000
2366.583670 90.294176 2082.625500
2160.000000 90.000000 2180.000000
1996.275182 90.254408 2286.305364
1782.256016 91.072289 2320.781210
1538.071483 91.002563 2440.436590
1440.000000 90.000000 2442.000000
1321.981880 90.952774 2399.502800
1170.000000 90.000000 2463.000000
1006.431837 90.080803 2490.974897
900.000000 90.000000 2514.000000
726.920303 90.436765 2678.629314
630.000000 90.000000 2691.000000
540.000000 90.000000 2711.000000
450.000000 90.000000 2713.000000
269.895713 90.025839 2756.388877
180.000000 90.000000 2824.000000
90.000000 90.000000 2831.000000
0.000000 90.000000 2818.000000
15659.917516 204.220098 2488.376191
15502.567913 90.197013 2498.152409
14927.362633 243.370791 2569.824578
14691.634233 260.132313 2667.709162
14497.549824 392.540361 2687.400675
13802.372624 281.155224 2410.270049
13271.442640 451.724514 2177.282835
12435.908856 269.376196 1938.611625
11719.073459 277.137554 1919.864165
11474.408017 280.132855 1825.169762
10842.765578 512.889908 1984.739831
10402.298933 236.701256 1944.875267
10020.059008 431.711369 1884.730312
9594.436234 312.212803 2049.330045
8798.441459 297.974256 1973.408781
8125.049581 274.710964 1838.713435
7754.689324 181.522699 1726.302040
7043.962374 258.415439 1762.962338
6781.139498 351.563653 1684.852616
6481.954111 361.073165 1758.471145
6208.489462 300.307276 1691.479399
5789.692973 364.858878 1751.033324
5418.674371 339.676115 1839.381131
3320.069448 193.087861 1896.695426
2896.301865 257.234640 1944.472282
2565.600287 256.098217 1997.999574
2009.588979 221.397112 2286.894697
1694.834867 192.194264 2380.891128
1380.809144 258.615103 2414.740756
1198.650027 285.269839 2357.841198
877.983989 225.758547 2547.922709
607.937592 245.409506 2593.720404
0.536595 180.134904 2832.479733
15039.472816 402.311102 2527.169839
14102.648876 346.154483 2497.349775
11317.408879 420.833371 1802.336748
10493.658851 358.530465 1969.602175
4297.946838 90.150026 1784.570559
4111.774289 91.527896 1774.982958
1817.624643 479.061997 2269.151692
1518.298335 390.505937 2302.251800
15658.723305 422.281043 2501.422493
15406.684001 400.218791 2531.803983
14861.954545 565.482465 2537.266508
14438.961699 642.288565 2725.714452
11953.499998 356.364093 1835.292099
10270.581227 477.469549 1866.080863
9279.282531 468.416563 2195.519043
8426.460557 377.201979 1861.811368
3734.170632 511.631879 1854.017441
3284.686819 415.896900 1960.599082
2953.969295 480.776730 2014.833887
2217.177534 468.544576 2167.173210
1977.554548 416.299859 2309.738929
434.576105 305.751648 2629.310642
121.118882 539.585926 2747.353811
0.453694 285.178138 2815.642496
11636.945668 507.810778 1872.212717
9617.794673 506.410764 2006.353593
8802.505981 585.784732 2056.647636
7982.589389 586.558767 1767.265032
7598.581799 447.631924 1738.567677
7417.174006 343.903398 1686.439191
6348.641285 684.736704 1649.069544
5313.320826 747.181063 1751.262311
4859.475956 385.349257 1667.012692
4472.352539 552.314465 1741.753388
4199.812306 567.464890 1842.791791
2598.207784 673.317919 2178.663851
1764.411242 636.342426 2274.672157
1487.954716 610.645720 2180.687771
1295.458732 561.073350 2309.713815
1145.713988 591.148566 2263.122105
931.073319 445.099027 2373.158415
407.485586 481.031465 2599.268277
0.000000 450.000000 2760.000000
14674.204744 655.856967 2616.076491
12766.056310 603.595135 2124.269301
11728.047467 674.373531 1806.129676
11193.875031 555.407448 1887.133423
10069.985561 868.973577 1911.814851
9488.311306 590.352469 2088.038394
9449.425061 745.776051 2125.854477
8216.988489 526.738335 1829.227381
7122.262081 708.708071 1660.025927
6870.091381 539.253004 1686.273676
6020.370141 997.731677 1641.160723
5518.056508 600.696969 1821.560076
3501.657746 710.043099 1853.027820
2059.413743 629.224629 2298.660255
703.788804 580.918009 2503.925977
0.000000 540.000000 2743.000000
15659.964942 566.088060 2486.563991
14101.917595 713.759360 2619.935587
13818.449042 854.217162 2591.545332
12268.522629 559.930460 1948.150157
10787.067337 714.375531 1895.607470
6545.001502 906.372639 1656.420314
2966.903973 749.548488 2009.789627
2433.608208 781.946372 2208.159230
1193.442028 800.778836 2190.540349
426.817488 686.996877 2661.476302
89.171646 777.481003 2790.050933
0.000000 630.000000 2735.000000
15660.000000 720.000000 2509.000000
13386.660070 776.028000 2310.022399
12985.563392 769.271525 2112.384330
12232.992622 853.696128 2005.618090
11309.193547 878.551766 1749.830770
10436.840459 945.383599 1773.749642
9124.122320 764.395363 2017.501187
8639.501735 789.788912 1984.279624
7633.547975 832.659997 1734.991767
4452.660724 1023.769836 1748.060053
2210.918084 815.957324 2133.182877
1935.705185 817.165349 2160.146004
1649.565202 842.227232 2241.799621
955.042208 750.834385 2343.153657
332.679612 718.595356 2743.849017
0.000000 720.000000 2751.000000
15659.948497 866.489050 2495.377566
15382.871472 973.599537 2537.162714
14427.611005 930.067200 2712.209231
14254.506072 1133.609932 2591.998982
12703.567547 889.914326 2038.939280
10827.897589 1023.672932 1812.030493
7013.243533 984.837583 1640.421583
5631.854964 1146.533202 1643.503337
4875.985945 863.475895 1666.394919
2885.495998 1047.149147 1951.366555
804.165103 891.440926 2475.106407
412.897181 823.250865 2626.523178
347.718486 923.511877 2692.828246
14758.764470 993.089107 2575.865946
13487.164948 1107.453598 2358.857837
12139.129462 1168.864912 1908.881263
11691.267615 964.634051 1823.647768
2055.249881 1105.860853 2107.509240
1460.432571 955.529644 2117.212263
670.936474 1005.034468 2481.483511
0.155339 896.024669 2797.917506
15130.485432 1145.106662 2587.982542
13110.974915 1230.925581 2187.440631
11087.878321 1133.601819 1710.301896
10175.524280 1015.402622 1841.219179
9772.724981 1038.806992 1956.941611
8368.423144 1050.246600 1924.738855
7628.685179 1115.375068 1792.294403
5335.388319 1081.518784 1748.910762
5083.397809 1248.133804 1640.973941
2438.388587 1136.795382 2061.400810
2229.359741 1102.241580 2030.032801
1085.845581 1114.403111 2322.443982
166.776496 949.128244 2712.533099
0.000000 990.000000 2800.000000
15658.895380 1155.811930 2498.886152
14562.202322 1182.499611 2629.785729
12834.316542 1319.565468 2070.210123
11647.757912 1155.842830 1873.050998
10746.406956 1283.244176 1731.788252
10527.703206 1382.300934 1801.368918
9383.087808 1206.298322 2054.616119
8791.414913 1103.841509 1885.957414
8063.193371 1233.164100 1785.126197
8049.671629 980.035357 1879.681253
4370.560472 1190.352355 1775.837036
1905.204496 1185.159343 2033.969441
1437.040813 1338.782186 2279.585632
0.000000 1080.000000 2815.000000
13791.082148 1254.180322 2514.429630
10257.863486 1271.833668 1898.671139
9999.835664 1261.909655 1912.826642
8480.025486 1326.945405 1791.523115
4140.912538 1396.464478 1735.981392
4090.342051 1597.721847 1687.588071
2935.928044 1414.074248 1902.350025
708.385647 1258.110629 2523.725172
274.184875 1312.982426 2785.980057
0.000000 1170.000000 2853.000000
14753.414746 1593.986930 2520.442510
11062.888775 1587.010462 1679.402628
8876.147162 1264.746140 1939.910447
8248.741934 1484.072061 1789.928403
7181.340433 1298.995822 1731.072371
5431.175088 1311.721789 1664.170530
3440.480519 1187.295322 1790.853145
2528.648076 1355.757501 2056.663085
1238.133144 1300.638953 2397.927103
13213.833757 1523.715342 2213.762058
11813.139012 1572.790984 1801.218869
11516.872109 1433.911080 1812.233113
10122.268297 1417.457674 1799.715526
9794.065696 1639.624384 1798.006761
9300.836413 1537.024293 1964.232986
7446.258753 1362.117614 1715.103584
6543.570554 1425.238763 1611.159233
4843.197442 1558.047687 1642.398372
3422.546120 1611.039999 1754.941952
2418.913146 1612.090316 1975.850493
2107.614816 1536.247424 1963.053366
1815.386718 1523.090935 2156.778470
993.904329 1351.707385 2496.038352
0.043978 1260.466766 2885.357925
15659.042226 1592.208436 2488.461519
15087.542033 1448.351628 2538.190458
13619.081085 1561.524462 2367.012891
13475.358465 1393.510276 2409.013815
12359.102001 1564.039221 1908.643445
8701.459509 1589.948958 1803.907176
7899.408879 1501.622545 1710.380371
6691.901124 1695.748339 1607.569605
2692.681695 1491.485498 1967.242886
1332.004932 1478.323640 2264.493274
627.517337 1476.610284 2658.654609
229.108519 1470.748132 2848.216523
14135.447660 1618.213474 2531.691495
9120.896115 1928.688689 1819.573148
8266.909719 1834.310069 1688.076351
7744.578745 1829.499875 1635.273517
7264.635195 1762.803714 1600.071953
2606.426027 1532.913726 2047.937465
1790.141402 1673.080344 2079.282471
1297.311232 1754.740668 2401.614618
936.774803 1583.119794 2559.218050
0.175144 1519.905695 2911.479620
12846.821344 1692.710293 2058.927395
8094.214784 1707.392582 1744.640485
6957.682025 1471.547452 1690.804518
5198.265246 1563.243155 1695.499155
2706.096465 1949.472322 1859.475973
717.482118 1688.359864 2514.581129
373.183232 1676.144626 2710.405959
118.592548 1624.294557 2797.928874
13720.716876 1745.528770 2413.158882
11019.765637 1965.004054 1661.803138
10626.065568 1836.740790 1723.037890
10267.195614 1899.805888 1691.044660
5497.522276 1753.109266 1603.703801
4513.064583 2011.092477 1651.702081
3219.872566 2009.134343 1797.849253
1626.552001 1883.681205 2236.150229
382.292439 2107.019163 2748.965954
5.663967 1704.706309 2926.770897
15659.617596 2026.480664 2487.170498
15490.934083 2054.855087 2515.767929
14076.937722 2032.623857 2478.684698
13242.282276 1798.851193 2102.468974
9569.639792 1872.304859 1752.504610
8093.454284 2185.570771 1636.006655
7009.323726 2894.894683 1566.119630
3802.128465 1903.675471 1734.483371
1142.250422 1937.545728 2287.507219
5.090100 1825.678830 2953.631280
14632.115850 1982.623826 2530.231940
12888.800690 2059.945614 2023.563258
541.755528 1963.679682 2614.092968
0.000000 1890.000000 2940.000000
13518.826810 1960.478311 2239.150592
11349.559323 1899.959123 1760.852668
10818.862443 2339.860824 1633.650866
10601.325575 2063.063962 1731.212500
9843.267527 2119.909286 1718.589391
8533.349699 1925.542923 1725.486431
2233.965439 1875.926701 1958.921455
1695.447240 2087.367551 2180.862227
0.000000 1980.000000 2888.000000
15085.063790 1910.034605 2499.783564
12419.527659 2213.099790 1896.811726
11506.829616 2527.655431 1768.499953
8605.113766 2216.055524 1684.857740
2040.495630 2072.784311 2068.396657
965.666326 2141.220952 2491.165421
15660.000000 2160.000000 2474.000000
15434.867003 2247.381611 2477.377824
13371.540608 2476.175810 2172.300258
11984.885375 1972.635512 1872.223958
6259.858561 2473.939481 1584.433980
1864.136117 2302.553878 2143.126937
1733.768450 2398.737872 2058.543447
1.744123 2163.506804 2828.767576
15659.998169 2313.359769 2495.196358
15303.686999 2433.008388 2507.266683
13587.650051 2217.481395 2267.942119
9547.042861 2131.420284 1713.729027
9350.887165 2573.337095 1594.816000
3004.815746 2671.777174 1863.977830
2451.025667 2254.944637 1917.513517
2046.610612 2238.185455 2023.618451
1185.549045 2314.601443 2362.262305
1068.749265 2379.013589 2366.087208
783.961565 2394.493813 2537.396182
298.939359 2415.358885 2574.813147
0.000000 2250.000000 2762.000000
15485.291428 2398.223899 2512.959772
14163.281989 2316.312671 2361.195867
10457.752473 2583.645105 1634.609524
7869.685352 2756.921522 1573.503051
5255.395670 2219.655250 1617.457795
4764.440006 2555.440101 1665.234512
2399.463055 2510.101605 1950.154227
2.415236 2362.323543 2761.202899
15029.926586 2568.578396 2529.688472
14361.119640 2471.648519 2473.878225
12805.096133 2614.296181 1978.568166
12313.636622 2632.032648 1830.498579
9857.883988 2634.727476 1615.712838
8839.543458 2621.379145 1582.498208
8329.915483 2550.209045 1651.701152
5878.738345 2566.890502 1619.633995
15659.897751 2735.574102 2497.224331
14652.000251 2820.270763 2531.505931
13629.042546 2511.630765 2209.007349
3887.622797 2604.327665 1748.794420
912.112932 2671.646517 2346.086800
679.871031 2698.366588 2390.279598
282.538893 2695.984986 2545.203856
14257.249910 2622.242337 2421.875842
13803.582254 2675.696085 2295.086325
11788.553165 2877.823997 1767.260597
10743.545602 2743.527893 1611.045048
5755.897121 2944.862498 1621.154998
1520.869891 2683.047679 2237.401795
1145.752684 2792.553246 2209.299743
5.514158 2616.795453 2689.922686
15659.748645 3020.856812 2519.214324
13988.835250 2749.298840 2289.288643
13553.550224 2805.484867 2145.862960
9954.852070 2867.976231 1631.757016
4562.283514 3019.542782 1689.718875
0.992344 2707.038998 2706.253063
14436.810239 2810.097958 2408.414144
14187.706759 2873.061671 2365.572292
12671.750771 2940.725350 1940.024899
11022.740635 2622.257932 1699.768769
2115.644328 2809.863080 2004.459464
770.758238 2885.881313 2425.695757
401.415021 2904.736891 2570.846784
0.000000 2790.000000 2716.000000
15122.829848 2888.898547 2510.285705
14048.896746 3268.833327 2187.974880
13188.254622 2862.607991 2044.400640
12176.257279 3278.755563 1735.953239
11359.572680 3074.774280 1716.952654
9575.836437 3002.286987 1596.551722
8926.867312 3243.327966 1552.368296
8395.219380 3530.314097 1545.753534
5489.952091 3372.358087 1631.246590
1858.815400 3029.403662 2055.944728
1079.812256 2958.875278 2278.407307
109.138237 3083.210185 2729.666851
0.000000 2880.000000 2746.000000
13691.581426 3035.890292 2140.365916
843.802239 3120.602097 2324.220282
0.000000 2970.000000 2762.000000
14278.265962 3027.786622 2301.583866
10619.819366 3338.277692 1600.124185
1454.465712 3116.491075 2178.762547
1085.610469 3132.883769 2359.568330
951.210913 3022.852024 2295.740391
424.234036 3119.270451 2571.353742
0.000000 3060.000000 2788.000000
15659.959741 3186.725643 2522.131290
15348.971845 3290.525317 2523.420801
13677.496253 3436.145621 2096.503073
10269.081590 3007.884988 1601.910131
3536.945225 3470.856676 1788.448312
0.000000 3150.000000 2826.000000
15659.669170 3549.000455 2514.921325
14430.655392 3218.054095 2403.623246
4931.338810 3676.101242 1654.313986
1603.200169 3479.790631 2110.313564
750.952856 3294.982556 2376.131597
480.588514 3337.802079 2440.229010
167.979488 3332.959547 2609.189985
0.000000 3240.000000 2746.000000
14730.820187 3252.916551 2553.646152
14366.578346 3505.270996 2311.473412
4364.868826 3830.597588 1697.149994
2510.908542 3823.192452 1930.742077
1918.033453 3466.463569 2086.137357
932.467345 3345.517967 2370.181374
15068.984949 3599.150187 2559.157027
13258.532771 3327.834984 1958.165384
11390.589256 3375.823265 1658.707355
9769.598190 3808.719081 1574.265472
1337.950142 3511.112509 2153.510198
850.864402 3479.160257 2428.518770
14770.430953 3605.408958 2579.451356
7938.972184 4148.422599 1554.796713
665.708342 3560.437667 2480.490567
12619.628205 3383.188249 1835.762919
11908.715452 3562.622888 1737.498267
5463.602330 3861.228386 1623.675432
1356.223083 3692.175255 2186.935886
1.465365 3346.824896 2737.815781
14655.846448 4126.641765 2482.495981
13442.839997 4105.715712 1986.138399
10965.632679 3823.810188 1606.840742
2153.758748 3837.173896 1995.778379
406.029334 3737.046809 2609.280247
15659.069839 3915.739288 2522.384339
13719.159347 4045.716854 2115.368761
12884.037763 3973.899309 1857.472053
11466.658900 3935.170865 1641.547538
2896.156753 3408.728551 1875.340238
1972.426788 4037.857626 1975.823486
980.261643 3741.123568 2265.230094
14939.195945 4007.760526 2603.806052
14139.700054 3854.768949 2185.068655
10715.517357 4134.037458 1562.536100
3227.210276 4077.689729 1808.462534
1827.944788 4194.384602 2020.393347
1325.720428 3977.501090 2108.024230
0.586250 3877.258847 2499.421556
15113.890747 4076.058991 2587.615593
14291.142371 4224.196834 2308.233093
12353.078187 4372.019048 1746.064423
11126.492087 4068.257626 1670.493376
5884.953233 4225.790106 1597.418745
3939.806929 4186.432695 1720.664723
771.839813 4007.417821 2397.053097
0.000000 3960.000000 2498.000000
15660.000000 4050.000000 2544.000000
15457.448597 4388.205667 2571.474434
12016.202019 4089.307098 1749.670639
955.943421 4115.300834 2262.642793
300.373442 4211.223503 2344.458394
15660.000000 4185.000000 2541.000000
9427.729026 4542.953245 1534.175837
4888.525416 4525.131463 1631.110607
3776.516719 4664.729014 1732.703415
2785.175027 4106.177357 1855.450466
649.601249 4181.792312 2430.428082
8.682719 4154.465793 2552.998390
15081.144668 4315.805440 2549.194430
14877.716649 4208.688707 2453.848258
11692.932681 4480.516353 1680.262960
11173.580107 4533.765010 1599.551622
2973.616594 4379.100305 1857.326120
2353.499046 4258.038954 1936.616249
1437.515149 4511.266577 2068.644308
175.675523 4310.167704 2421.006142
0.000000 4230.000000 2547.000000
15659.612410 4518.724121 2558.303538
14330.191990 4608.264428 2240.523460
7145.141537 4651.809509 1569.700563
0.000000 4320.000000 2491.000000
14610.398792 4381.833442 2327.205434
13172.675006 4547.842373 1885.936763
6545.239658 4271.493829 1583.427492
6248.349721 4354.356330 1598.451989
2022.531406 4420.106503 2006.680166
822.193756 4438.903363 2262.518710
255.500525 4523.813367 2461.754698
0.000000 4410.000000 2514.000000
13101.152148 4959.750359 1825.479505
8355.466853 5037.505675 1543.989973
6427.351399 4703.602278 1752.447404
5930.374616 4479.848132 1697.001586
5655.190445 4555.616215 1708.745692
5381.492974 4443.850532 1610.447864
4642.153831 4707.353082 1646.374473
778.383970 4693.036934 2166.406235
0.000000 4500.000000 2555.000000
14892.691656 4552.243990 2397.640483
6153.063614 4819.593379 1724.793342
5847.469197 4711.520945 1718.733033
5302.696087 4877.203970 1730.754578
2122.112860 4916.774727 1946.916721
544.603103 4845.697119 2342.522757
0.000000 4590.000000 2562.000000
15328.494331 4748.626335 2516.342016
14832.797816 4861.251377 2292.970620
5631.118369 4715.358410 1709.788509
1711.136146 4992.397150 1988.646653
417.995625 4641.967175 2335.060065
150.193745 4762.030415 2439.202706
0.000000 4680.000000 2553.000000
15659.774497 4855.276463 2586.076487
7651.726186 4895.944747 1591.935864
6280.580846 5003.093755 1814.545122
5128.622503 5035.453087 1710.766919
15261.980469 5109.247326 2437.819207
6796.787480 4962.805276 1649.414381
5985.531214 5032.493374 1847.680021
5613.087487 5085.053273 1772.873481
2927.661905 4842.830850 1832.526437
1147.031726 4921.056787 2084.180310
291.910758 4918.906026 2438.412759
5.700501 4772.165569 2528.185378
12173.255798 4808.748365 1736.722490
11735.222687 4911.982809 1679.455566
2.057527 4954.197041 2555.745848
15658.706331 5117.387457 2621.072064
14958.581051 5289.857051 2390.028492
13923.524434 4898.379628 2059.990549
13983.218412 5172.567176 2010.406157
7930.660341 5313.698389 1604.125519
5097.402091 5442.738260 1875.302062
4712.742007 5227.801992 1737.085249
2840.865547 5254.041865 1840.991008
762.292426 5109.504035 2207.978962
185.548927 5209.565528 2498.464982
14615.064450 5398.647568 2214.649777
11844.378127 5435.503854 1684.330055
10795.429195 4785.348791 1567.292522
6673.374821 5150.448246 1692.849462
3783.310721 5196.074601 1736.999280
15660.000000 5220.000000 2614.000000
13486.324786 5411.444691 1892.913493
6591.380838 5336.428784 1793.817212
5924.142715 5304.942230 1932.750404
4617.048225 5489.163690 1789.392270
4383.583609 5205.562410 1669.786803
1475.909681 5250.984607 2092.611259
921.328431 5471.251921 2159.565206
478.434516 5338.867411 2304.806459
1.112817 5212.340174 2441.468266
15659.489328 5458.026330 2622.068781
5580.624047 5714.837194 2012.887648
2441.217976 5317.496073 1889.614851
0.000000 5310.000000 2393.000000
15657.958684 5620.236979 2612.817499
13981.373025 5407.431275 2044.492379
12700.163386 5441.432988 1765.200061
11363.927804 5557.194357 1616.660528
11192.199451 5249.956103 1582.739482
7326.806738 5175.353774 1633.361675
7300.956129 5548.192444 1624.894253
6465.610726 5577.826896 1732.006823
2748.643551 5450.210100 1890.298827
1957.907699 5521.212296 1992.451930
430.568951 5625.604496 2282.541333
0.000000 5400.000000 2389.000000
15247.225375 5759.666173 2510.570785
13132.728209 5585.185019 1860.272378
7626.692630 5680.121059 1571.923839
7022.702433 5471.895482 1644.275510
5782.030073 5503.330996 1906.858693
1613.838768 5571.327655 2078.588275
276.284187 5572.522420 2263.897744
138.282055 5570.677200 2336.405084
14434.349445 5844.927523 2187.565053
12325.128410 5620.249045 1703.544430
9371.697499 5792.644045 1524.349475
8335.330005 5539.925499 1543.389727
6214.583934 5691.837806 1786.230850
5106.721525 5755.455040 1880.112815
4663.242150 5808.106856 1794.878364
4240.541860 5637.657955 1678.134970
3463.629630 5716.223430 1766.693079
1.078022 5507.193057 2336.251765
10564.944258 5419.514327 1533.321269
5862.902990 5755.709143 1913.356898
5468.348790 5815.234185 1969.000990
15659.401757 5838.038195 2694.974724
13867.755539 5929.673065 1988.395372
13387.642743 5875.431246 1847.849193
12632.036456 5921.883184 1766.935227
11710.513461 5981.020081 1618.786204
9874.022408 5530.754312 1518.865619
7828.035607 5880.455208 1611.410124
7501.984769 6012.558735 1638.596690
7056.847577 5868.189707 1729.906735
6090.560888 5865.576110 1839.107339
4522.928874 5933.992075 1831.598993
2803.353591 5823.971815 1854.561373
1815.951476 6015.990219 1932.192573
1405.611518 5804.297555 2065.929742
522.545304 6002.840012 2143.535664
206.988714 5866.717495 2143.924044
0.220046 5732.707608 2192.793096
14912.115091 6087.348114 2390.075610
10850.852816 6725.552213 1521.059109
9207.240596 6686.229006 1516.074037
8299.052610 5785.556820 1591.223780
6534.257597 5828.567613 1746.662993
4120.662358 6252.289906 1759.883505
2110.204099 5899.575101 1945.006572
1072.059097 5963.977834 2107.344547
0.000000 5850.000000 2193.000000
15659.905683 5945.159871 2686.887485
6544.514541 6391.149145 1856.172049
5923.700075 6117.272200 1982.504689
5727.140642 5975.513276 1939.416253
96.741494 6033.516614 2240.847922
13446.909058 6265.288336 1865.634045
11380.221913 6177.965138 1584.356602
10923.776107 6023.920536 1562.512952
10038.769197 6802.699767 1509.800653
6855.641357 6184.856887 1764.071861
6276.576789 6086.992611 1825.073941
5023.795998 6235.420437 1930.104640
4615.617269 6305.871987 1905.201786
3534.541640 6034.208948 1717.605569
2659.811338 6237.561584 1745.854624
0.155708 6028.067751 2268.394581
15524.219648 6300.963950 2475.944860
15506.100475 6019.749163 2651.060767
14665.649319 6561.960082 2231.174835
5528.950063 6338.226561 2173.474422
1217.528655 6155.220710 1995.850470
0.000000 6120.000000 2264.000000
15659.195721 6235.408919 2546.847704
14116.663846 6521.509149 2027.018007
12881.984203 6472.046298 1772.739072
7725.230438 6168.364590 1659.516019
7456.634967 6338.060730 1682.423384
5679.111639 6304.040249 2107.379092
3115.097749 6223.479287 1745.401795
2019.550972 6408.214086 1811.668259
288.701677 6264.257647 2067.810839
0.000000 6210.000000 2241.000000
11936.309299 6202.340683 1670.925937
2283.016797 6229.749129 1783.960679
1440.969825 6435.792660 1974.676304
672.247018 6271.038455 2143.199618
185.630090 6510.798251 2124.256514
0.000000 6300.000000 2246.000000
15348.231841 6462.710378 2358.633848
15193.570180 6307.063297 2436.808198
15138.895648 6668.846074 2298.627694
8422.195962 6676.499498 1588.799185
8185.145144 6107.816915 1550.849313
7051.817484 6553.077763 1818.916474
6082.446361 6407.250269 1922.578222
2609.518733 6630.767802 1895.462900
766.187485 6658.128986 1992.122602
15660.000000 6480.000000 2517.000000
13763.291376 6732.015892 1906.222553
13239.426287 6758.496443 1776.628231
7940.331962 6691.023723 1694.633247
6754.503656 6570.736161 1917.185290
5340.948454 6503.756259 2175.961224
4933.838971 6620.961896 1972.070543
3722.366710 6780.219886 1846.191363
2294.283275 6764.854872 1883.633212
1270.216625 6667.567724 1906.534791
0.226006 6430.758825 2192.887713
15660.000000 6570.000000 2517.000000
11502.341786 6789.668296 1590.796107
7534.283953 6730.738088 1709.631266
6396.845470 6770.944746 1982.435841
5616.322407 6583.228343 2043.211503
4313.244670 6713.659909 1854.538538
3975.016966 6542.355716 1797.405211
2090.199857 6768.742546 1959.208357
125.246447 6723.032236 2084.270456
15660.000000 6660.000000 2546.000000
12336.839085 6494.739018 1683.311051
6047.570518 6782.802527 2037.226034
1857.354231 6675.421692 1814.127174
15660.000000 6750.000000 2552.000000
12916.546353 7074.985305 1723.847898
12027.777920 6940.264394 1626.886355
8797.008664 7077.433566 1522.266858
5567.458891 6861.759489 2080.883472
5241.108575 6865.760422 2188.388001
4871.886078 6989.903322 2012.769678
2480.693945 6871.426752 1975.723834
2.219566 6595.577072 2105.580002
15660.000000 6840.000000 2600.000000
8215.872033 6990.768401 1697.212985
7791.453179 7040.262770 1818.532050
2973.250748 6883.311024 1862.554169
2617.853835 7005.444542 1944.202013
573.721397 6780.208809 2039.734531
0.000000 6840.000000 2055.000000
15660.000000 6930.000000 2610.000000
14914.440459 6970.795846 2174.226540
7154.140026 6826.051681 1875.160894
6639.649522 6915.462337 2003.041297
6152.691995 7090.826851 1915.300705
5667.118941 7074.208842 1998.854580
4283.603143 7078.115282 1915.906941
3306.372150 7354.281790 1954.970862
1922.532795 7226.378322 1915.533470
1527.223572 6904.462933 1941.148499
807.715992 6998.519718 2028.011479
307.107416 7040.401189 2134.109927
0.835008 7025.076107 2041.992530
15660.000000 7020.000000 2598.000000
15211.457372 7059.347573 2347.183326
10969.655708 7838.513657 1497.330178
9634.716990 7506.751013 1506.763278
9223.774404 7230.138648 1588.225460
7633.401723 7144.942911 1776.670456
7474.916465 7182.685781 1853.656197
7059.241414 7096.830885 1921.059260
6497.725316 7355.809137 1847.504260
1794.027668 7132.141312 1846.155177
1633.269770 7279.629608 1874.397364
15660.000000 7110.000000 2560.000000
15288.803048 7256.950783 2297.832166
13896.896630 7150.675742 1929.703297
13275.040854 7308.950498 1769.729059
8217.032027 7201.376461 1647.555894
7925.108973 7340.693787 1700.764968
6835.639148 7306.020941 1839.080720
6672.183820 7366.908970 1876.964719
4769.148252 7278.968603 2144.343177
4142.987421 7284.498532 1983.323844
3860.825513 7399.595023 1959.065023
2287.677761 7046.174917 2081.219377
15657.152472 7199.381127 2550.115855
14347.589879 7280.791868 1959.636549
5860.340474 7336.919990 2051.232129
5458.132570 7224.951273 2136.461141
5150.844404 7137.793538 2179.236662
4503.082368 7282.373945 2015.866854
2903.878536 7318.364303 1952.656169
2485.240056 7156.434888 2059.765718
1311.635669 7376.420270 1949.264117
729.431741 7301.392248 1934.154443
198.041393 7399.488684 1995.412071
14700.141954 7291.194914 2040.798394
14238.492089 7089.496687 2022.046728
11456.893433 7487.696125 1542.303408
8872.877407 7364.216993 1578.229311
8545.429740 7438.011754 1608.061983
7289.480108 7390.816563 1796.052562
5750.717396 7335.463103 2028.701267
4652.395862 7457.375193 2164.104804
2578.036175 7493.179114 2105.597932
2309.029253 7329.983544 1984.770713
1868.801135 7424.620077 1985.157748
0.565874 7263.480632 2004.498556
15660.000000 7380.000000 2570.000000
15162.097173 7574.066017 2337.529840
12514.018264 7531.393577 1620.241907
12047.833631 7664.304348 1593.797413
9460.020989 7626.948288 1549.780455
8184.504470 7598.162456 1579.989531
6991.093462 7496.244870 1813.061364
6146.206247 7336.850687 1954.600773
5316.668784 7490.520388 2012.506180
4975.009098 7342.013415 2196.675609
4366.524361 7501.841230 2126.580292
2095.063945 7698.959305 2138.760129
15658.404634 7473.796096 2574.273519
7762.531079 7760.041475 1606.265677
5137.048618 7833.975380 1993.732347
2374.254001 7661.111970 2050.703521
1663.707509 7478.571891 1858.387024
1456.491959 7633.996419 1863.367219
544.290894 7593.193120 2033.043842
15490.662418 7536.674421 2489.223429
14340.149296 7536.715254 1925.268852
13918.323745 7518.838930 1874.403451
4160.764971 7684.960495 2049.676108
3180.348027 7854.932147 2172.101326
2875.255374 7689.038562 2131.295705
914.081617 7635.315228 1979.251590
15660.000000 7650.000000 2459.000000
15448.168976 7886.918289 2259.247779
14781.795110 7758.618812 2094.689643
14130.481220 7795.319257 1878.720876
13588.154608 7682.332013 1808.649574
8800.331097 7766.413129 1537.511767
7212.828200 7774.433517 1669.235252
4448.088028 7911.754245 2195.416309
212.600087 7707.167062 2086.742179
0.014502 7383.954248 2054.561972
15656.863557 7827.297737 2422.234806
8462.867620 7782.942672 1571.412127
6295.805591 7862.924155 1798.246665
4265.795859 7956.681879 2189.583521
2658.713465 7999.469606 2351.665770
2316.560500 7872.387009 2174.470062
1729.811578 7779.135241 1970.317412
1444.552492 7886.532525 1912.991410
14662.382662 7902.076056 2005.382548
13686.598026 7918.716921 1776.624488
12726.433528 7935.728295 1638.661804
12184.185731 8036.065121 1563.679915
9483.106541 8348.648345 1500.218178
8019.540436 7934.406166 1614.141366
6885.715478 7886.519849 1712.074085
4750.933231 7850.512208 2059.952438
3693.667410 7671.386029 2056.505577
2132.005626 7964.235799 2068.093249
378.459549 8081.091250 2055.152141
0.455394 7796.414208 2105.228211
15656.806019 7918.516177 2420.964818
15656.989998 8090.921418 2398.546113
15043.162380 7920.780898 2107.981112
11719.466178 8148.354205 1531.992423
10836.349502 8636.338669 1493.281271
8261.635314 7967.500389 1523.778597
7133.062568 8049.999886 1758.371387
6142.796735 7987.992935 1819.454620
5556.033470 7882.318497 1894.409456
4081.883490 8044.983181 2219.181522
1991.338454 8151.723609 2081.563122
1150.022947 7855.900435 1871.470194
201.667779 8180.910122 2033.895915
0.000000 7920.000000 2114.000000
7546.219299 8066.029568 1666.814954
4869.107474 8118.199856 2146.000032
3351.183595 8101.452473 2364.011101
2924.657533 8078.953958 2410.178305
2489.860628 8158.880902 2264.479187
741.486930 8115.417661 1980.118167
14547.169228 8344.104729 1936.498043
13221.066947 8031.147083 1711.519341
7940.152170 8278.039705 1543.255931
5463.210456 8125.994594 1983.806569
4395.210142 8270.053079 2039.019235
3748.640159 8078.464850 2331.388486
2363.858037 8316.557807 2244.963033
1711.969547 8266.397241 2060.878634
1394.900867 8299.843942 1978.038562
1152.104469 8220.553187 1892.571722
15657.501776 8265.264284 2432.127079
15366.055383 8233.178821 2330.926468
14881.098998 8206.479481 2084.416322
7193.063170 8257.057877 1690.602060
6994.642151 8209.063081 1798.018108
6566.033800 8195.078957 1883.974119
4693.726636 8525.668436 1993.195504
4019.838681 8266.054133 2108.906278
3812.309234 8276.429874 2195.871565
976.489793 8366.713399 1881.514189
14157.638394 8714.287470 1845.088712
13719.265949 8399.314199 1748.249103
13360.505619 8422.741248 1714.476867
11620.176730 8773.218661 1528.299669
8509.495108 8600.076080 1507.828231
7516.515174 8477.162329 1597.241503
7029.477333 8404.566029 1784.671739
4365.084783 8512.087676 1990.450492
3256.452382 8367.837456 2189.829195
2702.728207 8367.242681 2270.954330
810.577490 8610.745447 1898.871893
0.500871 8164.080001 2057.574820
15659.480753 8458.488527 2424.359350
6855.607003 8527.822367 1883.239298
6615.239999 8570.890537 1920.575913
6214.084012 8315.691540 1931.833433
5898.090880 8344.551439 1984.827172
5543.766347 8761.071943 1800.102407
3791.341860 8409.183559 2103.724911
3705.975540 8694.417326 2041.081935
1478.962405 8517.858644 1987.341163
297.741059 8448.613305 1964.536609
15316.526112 8588.749834 2197.650153
5805.609763 8713.981735 1875.633379
5278.801385 8468.220794 1899.857710
4935.132351 8620.006333 2002.474999
4187.237458 8606.746819 2058.916573
3407.186344 8566.747954 2055.441832
2066.996501 8415.086867 2203.168391
1241.323406 8632.052414 2019.681848
0.080496 8460.183563 1993.367860
15660.000000 8550.000000 2388.000000
14690.804999 8700.175575 2013.637219
13940.412422 8833.860842 1878.398873
7994.663092 8704.768694 1511.683297
7176.565486 8650.379043 1694.500275
6333.223750 8734.657285 1804.459331
6120.843911 8856.994601 1871.677331
3234.784371 8787.439789 2035.477916
2194.231823 8765.212315 2130.571334
1724.082619 8836.294013 2019.878604
413.941050 8633.029077 1974.576704
15660.000000 8640.000000 2391.000000
13004.241943 8609.037748 1671.565281
12302.684836 8774.955370 1607.736027
10879.776323 9932.421112 1483.489005
3856.341355 8761.956671 1952.222648
2738.173556 8638.782704 2217.670535
135.827999 8698.199680 2078.947103
1.247368 8635.378441 2087.049703
15660.000000 8730.000000 2430.000000
13061.472632 8986.493030 1710.135668
7702.210468 9020.496804 1539.372354
6700.021882 9073.930684 1731.071722
5285.125096 8921.223269 1820.159468
4617.602951 8918.586044 1917.531969
1563.643696 8928.994604 2033.145710
1345.409690 8871.126066 1988.347584
543.158148 8769.970032 1916.761554
0.000000 8730.000000 2118.000000
15660.000000 8820.000000 2400.000000
15372.235983 8855.693920 2271.186150
9542.093781 9185.016162 1491.664073
8240.393661 9134.798304 1567.742261
7424.642810 8781.099734 1650.293676
4835.397176 8946.842577 1872.289898
3649.366162 8999.919370 1917.135747
3467.619828 9146.174829 1984.499540
2795.988855 8988.043078 2331.045874
696.151085 8966.767588 1980.078007
337.476004 8908.116338 1937.767697
15660.000000 8910.000000 2325.000000
13734.568164 9042.610436 1831.358238
7395.076544 9226.025244 1594.582730
6975.804916 8864.594151 1782.309826
5918.891591 9062.931134 1762.787160
5767.989818 9123.683023 1813.581688
5048.072752 9095.643875 1907.098300
4113.096898 8986.991841 1876.349188
2370.164235 8996.561459 2185.177029
1386.515964 9252.030316 2102.901882
165.671289 9041.301432 1957.714079
0.040367 8910.493798 2057.802353
15660.000000 9000.000000 2296.000000
11679.871904 9357.508773 1500.307758
6894.450005 9189.470353 1643.563393
1380.564050 9461.690561 2047.875028
808.404288 9052.640098 1949.524526
0.000000 9000.000000 2011.000000
15659.976421 9129.031980 2198.757083
15659.886444 9380.325389 2096.007003
14353.595968 9201.681930 2005.168563
12795.108320 9500.142654 1756.070397
12485.917230 9280.629241 1718.110010
6564.292060 9351.777580 1618.740742
5523.500967 9213.208531 1715.077981
3862.861182 9255.371066 1931.649729
3015.630598 8981.871562 2185.163493
2674.055126 9203.538048 2360.440865
14916.459541 9112.527189 2089.375660
13326.967989 9341.653412 1806.898945
12257.523216 9286.660581 1640.064628
8583.726972 9345.436072 1518.764611
5308.008414 9290.490645 1799.514421
4435.660635 9180.216902 1808.858666
3221.893716 9267.268603 2011.739584
2639.314706 9473.497227 2393.679249
1703.143125 9190.678599 2070.917567
1016.076100 9279.230524 2006.582874
652.462765 9474.399209 2062.374809
232.480934 9301.202560 2054.271074
0.020442 9140.081768 1972.268638
15298.456588 9435.127192 1998.131982
6901.280741 9495.569556 1579.552717
4763.023882 9259.701631 1846.975267
3085.814676 9501.839994 2071.998257
2316.532417 9391.190319 2263.721534
808.004306 9413.579535 1991.172696
0.000000 9270.000000 1968.000000
14570.812171 9468.984359 1934.684815
13879.065419 9410.305730 1909.216933
7515.745251 9699.429096 1552.964746
4351.119747 9577.070230 1788.186812
3782.866746 9467.838304 1885.197614
3442.201897 9574.944188 1952.292434
2909.392391 9513.422741 2234.228614
2041.572643 9562.706313 2159.929620
1931.702924 9671.598362 2196.801007
479.844463 9477.205293 2007.906674
12298.077737 9589.723491 1612.080269
8136.835342 9543.936740 1547.262859
6178.859651 9710.352277 1607.579642
4850.675195 9677.383696 1715.759734
0.664783 9365.445902 1957.847373
15659.277194 9578.803922 1990.955086
9242.930431 9548.391984 1494.088210
7190.874503 9875.242504 1624.251897
5127.030862 9711.056697 1687.873110
4025.327854 9792.558899 1933.624413
1386.600431 9680.349718 2108.116053
1128.382426 9743.002289 2090.726732
519.337262 9766.186319 2103.897940
305.636203 9755.028030 2049.900183
14831.982888 9889.608178 1805.913011
3729.180564 9789.408752 1961.809716
2808.521309 9659.801335 2281.349947
963.316191 9765.193616 2066.383051
764.947666 9795.913352 2147.653037
0.416536 9586.627357 2000.883799
15659.761335 9719.839754 1944.435188
12602.391906 9725.025411 1713.937976
11851.163635 10160.930055 1495.582366
6772.933592 9873.839460 1725.226211
6510.011850 9711.885009 1614.482383
5496.033895 9870.249711 1726.153901
3251.659103 9785.521372 2036.380910
2591.104457 9751.017442 2376.407070
118.107185 9856.279676 2009.357622
0.000000 9720.000000 2006.000000
15299.036228 9985.451055 1841.549126
14101.861189 9808.681590 1853.998535
13464.974841 9738.478056 1887.712751
12494.912718 9904.073885 1621.687293
5896.365734 10258.130962 1905.148760
5773.998188 9654.622568 1642.011120
4554.893865 9893.687482 1846.967249
3857.939648 10002.402439 2055.952407
1444.314199 9933.907087 2113.771478
0.000000 9810.000000 2041.000000
15660.000000 9945.000000 1854.500000
13172.020436 9724.512886 1862.158624
6646.999322 9959.856991 1678.940265
5647.010949 9990.249395 1729.381691
2541.319537 9996.581383 2318.390212
1995.601014 10101.838093 2178.514441
1748.966873 10109.848686 2177.830103
701.060432 9963.742462 2218.114186
9322.121879 10407.041324 1499.320369
5213.817337 10173.842894 1866.536576
4991.465846 10227.711253 1909.735076
4782.403533 10015.385064 1794.765729
4516.621559 10203.978444 1905.539335
3690.218665 10094.470755 2111.114054
3038.012158 9966.599777 2187.548116
1376.856093 10348.063545 2278.703225
1094.158413 10079.970763 2137.732128
0.360595 9984.122345 2010.398847
15061.588694 10180.737826 1742.804944
13627.215320 10118.764544 1789.766514
10452.296428 10746.020044 1482.071954
7018.728199 10176.554900 1580.520156
5608.625677 10270.455062 1817.930804
4170.451053 10053.902508 1998.452434
3351.179490 10037.384979 2182.425847
2722.513411 10091.848216 2172.788886
2376.952301 10225.402193 2340.394992
627.073742 10205.142708 2097.015578
287.275656 10248.108450 2142.136860
14959.521570 10510.010570 1673.922600
13089.900424 10331.843070 1768.361541
7915.771561 10189.204630 1538.812952
7379.814969 10098.496967 1664.458202
6469.312369 10036.664936 1709.269413
4196.839583 10375.441359 1911.003512
3828.802498 10269.801284 1992.007761
3566.159173 10234.457562 2022.293732
2611.666334 10273.373350 2257.100842
1754.508436 10408.200082 2252.586819
1086.112641 10262.455436 2201.388619
462.978874 10259.476125 2093.682323
2266.083997 10491.851951 2430.202227
5.180822 10180.853300 2008.196078
6809.098662 10420.094067 1603.774683
6376.394952 10580.922247 1658.080314
6200.774458 10227.069512 1832.101638
4880.010418 10430.527503 1889.964574
4447.004806 10479.892684 1907.189238
2664.523801 10443.932879 2149.652171
636.026475 10497.470533 2220.102599
0.000000 10350.000000 2040.000000
15659.668467 10313.220788 1725.364466
14153.546033 10549.729985 1698.836255
13609.606724 10982.562488 1622.878935
12637.862369 10462.040628 1681.306294
7506.396740 10568.874177 1558.615348
5590.572294 10588.164452 1712.322502
5324.829301 10613.127697 1781.836292
3373.196578 10491.538086 1949.274432
2942.075135 10329.811907 2040.217181
2520.742775 10528.528236 2251.133921
1657.921950 10640.904603 2358.870196
14485.916494 10239.276735 1741.542358
12095.767605 10611.517090 1509.626462
6627.478214 10582.760500 1662.978773
4711.290205 10536.594156 1827.275442
3199.189595 10645.881915 2017.206633
2200.146972 10626.681007 2481.607597
1169.722643 10565.257268 2181.239402
842.954769 10773.788719 2212.651989
1.650170 10441.211330 2045.284595
15658.920120 10651.688829 1700.136197
6955.736060 11039.463589 1584.912838
4391.899591 10723.913692 1815.262673
2769.616057 10749.771266 2081.832748
513.160190 10734.595669 2356.932621
0.000000 10620.000000 2108.000000
15417.633578 10679.303184 1649.087890
14866.738990 10937.067594 1615.279862
14178.361748 11067.945195 1636.828752
12288.192961 10828.840705 1588.115094
6627.087447 10851.553864 1603.981213
6303.484311 10778.332109 1727.301276
6095.858100 10627.773571 1756.587662
5054.080033 10716.570419 1734.590149
3982.241883 10572.183140 1868.289739
2465.894488 10965.720756 2197.198938
2199.115278 10905.564848 2382.433566
1386.079823 10715.711193 2279.164482
1188.546053 10903.582098 2183.916372
273.458852 11066.822615 2311.222015
0.000000 10710.000000 2123.000000
15660.000000 10800.000000 1716.000000
15658.884999 10880.739057 1693.982274
15269.576655 11103.118939 1694.536027
12762.272669 10944.607238 1586.304670
11762.237664 11057.359341 1483.760726
5560.665005 11046.362850 1683.926786
2008.410763 10779.125341 2495.737539
15485.770146 11121.886861 1680.642722
12201.970468 11048.450662 1610.779878
10614.617933 11035.274348 1574.468694
7257.635745 11238.661699 1606.831378
4556.394048 10910.505835 1879.192998
3878.436475 11013.558708 1982.512891
3430.029288 11117.145740 2098.638441
1600.030023 10848.327074 2307.811583
0.100175 10890.290009 2170.790243
12765.176367 11360.188007 1542.500443
5141.636914 11223.264749 1832.726082
4036.529729 11191.454013 1949.038240
3037.412861 11201.767744 2250.940225
1946.110100 11036.437758 2498.047659
618.352874 11090.696411 2388.288063
0.000000 10980.000000 2184.000000
15660.000000 11070.000000 1718.000000
7676.917085 11382.142987 1544.971894
4743.942403 11071.818445 1843.199673
2831.252608 11196.869390 2230.635733
1549.344262 11088.357211 2289.075559
0.000000 11070.000000 2172.000000
15659.915128 11251.860825 1703.550738
15150.201848 11326.210823 1732.214167
10985.424268 11221.250077 1476.698697
6637.206054 11352.052412 1668.571115
6266.777334 11155.062069 1621.321090
2386.628175 11142.539947 2277.451674
1901.231452 11209.327169 2498.399548
1457.850925 11527.386348 2352.713005
1098.728033 11296.989084 2278.327000
296.189362 11373.673867 2254.552316
0.000000 11160.000000 2146.000000
14433.714887 11445.311790 1577.724993
12321.015245 11251.368975 1606.801147
11397.039098 11888.869555 1470.897902
10331.464008 11333.961773 1480.209672
5829.922705 11339.793680 1724.816051
5433.053512 11594.126744 1809.841471
4835.672500 11285.412122 1905.170602
4508.636972 11412.309632 2017.947896
1730.575981 11408.340378 2410.824591
15655.093425 11383.298236 1747.049267
15095.093760 11562.465014 1709.551125
12606.346622 11628.928460 1552.018388
4313.015492 11483.949032 2050.430937
3069.203561 11438.960512 2384.146674
14832.390128 11403.110524 1677.195116
6396.648140 11599.671877 1666.507978
4814.740358 11584.586143 1990.120570
4149.071157 11638.562321 2092.547133
3641.828261 11373.686954 2082.612779
2302.753528 11440.517493 2463.383464
2018.701143 11499.768468 2543.231049
1202.885714 11617.153114 2330.958133
0.240799 11251.064524 2145.592352
15660.000000 11520.000000 1828.000000
10862.172716 11722.517134 1477.046391
7238.847106 11613.691255 1591.917560
3590.479348 11569.438897 2174.756522
2567.146173 11576.821852 2402.515216
753.410615 11447.048893 2452.853390
1.268385 11523.855770 2208.809848
15659.295676 11682.547859 1906.030875
13986.878044 11791.085029 1551.194830
12070.377727 11934.041320 1492.345176
8814.825901 11305.229407 1508.163836
8545.753152 12036.671904 1519.498634
5822.446413 11527.280068 1817.496597
3326.131480 11685.155591 2223.907000
3151.839469 12003.424620 2126.028869
2981.334633 11675.867201 2292.063888
2788.700603 11732.535600 2241.310470
2206.129359 11820.660554 2306.560857
1965.874341 11676.367562 2468.109382
0.000000 11610.000000 2188.000000
15520.988144 11602.053202 1888.055996
14921.707322 11896.252142 1784.846814
6760.274911 11603.228297 1600.638894
5805.088474 11835.432801 1756.615471
4268.029948 11953.967062 2021.303229
3901.656474 11813.906555 2072.688855
2412.858304 11846.285597 2251.945635
1775.555356 11702.065129 2547.922677
1433.811180 11866.969926 2544.605222
239.930617 11793.331901 2321.903897
15274.927288 11988.762789 1920.976973
14820.318168 12149.122519 1782.095344
10905.280695 12054.418887 1466.489740
7070.445728 11971.164132 1591.601245
6203.047036 11889.660209 1644.685523
5688.384565 11875.184241 1805.624954
4726.416652 11951.922298 1832.366306
1602.150035 11804.821725 2509.040578
938.741303 11738.260118 2384.999500
15658.703437 11924.991700 1951.283214
13640.406465 11808.642406 1536.194249
13183.770230 12067.291283 1515.360695
9905.339261 11769.267229 1485.029241
5479.985073 12109.753825 1704.066434
4887.540988 11982.583634 1868.619873
4040.424065 12109.372392 1942.515369
3586.928975 12038.388281 2111.010865
2770.565409 12049.444166 2142.184783
1149.130165 11953.344464 2476.514087
442.873856 11725.693734 2322.328333
115.320996 11993.632395 2244.909195
1.534403 11847.874186 2288.538849
2726.151855 12295.959286 2080.359203
2100.569914 12035.267485 2254.034353
1779.180733 12036.856699 2377.142055
728.141221 11934.477764 2371.822965
0.000000 11970.000000 2229.000000
15658.962555 12066.202780 1989.551445
10584.107709 11933.849746 1484.980441
6385.779197 12346.630788 1627.931911
3363.006930 12448.390241 1977.160649
2959.885700 11999.176608 2176.507798
1651.806805 12230.933284 2534.774504
1446.228080 12245.408737 2573.901059
1152.446546 12251.786732 2422.692263
614.922900 12223.268758 2355.960719
0.000000 12060.000000 2214.000000
14149.675200 12248.081090 1633.863071
10670.210191 12375.462794 1470.086625
1880.009583 12217.037629 2388.870150
298.028859 12215.221769 2336.820764
0.000000 12150.000000 2210.000000
15660.000000 12240.000000 2063.000000
14664.350866 12495.862687 1774.792946
12243.246859 12503.705515 1506.389615
6046.780917 12339.036478 1679.244088
5665.117953 12381.984000 1729.044152
4554.188652 12234.585003 1857.814696
4415.925782 12382.366218 1915.554979
2156.344499 12380.440839 2214.386872
123.818187 12420.745919 2261.267666
0.000000 12240.000000 2213.000000
15659.921446 12420.219589 2108.163809
13304.931094 12637.925663 1539.187143
10382.832569 12891.143591 1474.264398
5075.313500 12314.825923 1738.401626
4183.102450 12445.243161 1901.363379
1817.700030 12372.816416 2328.794400
1666.922551 12508.018662 2436.253283
760.903216 12532.189414 2454.126802
0.000000 12330.000000 2207.000000
15471.018085 12312.914301 2109.534579
15167.477129 12519.554041 1920.649484
5948.435229 12612.703686 1597.321398
5104.176704 12558.006020 1753.436014
4889.401863 12561.029384 1771.076442
3972.003401 12648.769101 1883.368434
2368.275641 12515.213264 2220.563317
0.000000 12420.000000 2223.000000
15659.963432 12645.888329 2101.163433
15407.179811 12527.726791 2040.772453
7828.113233 12634.077098 1535.490881
7172.372290 13109.060009 1542.401223
2751.451488 12552.339864 2110.652647
1389.158630 12654.847118 2560.583197
520.181043 12696.599185 2343.423371
0.000000 12510.000000 2274.000000
15478.377904 12852.157110 2109.941629
15057.986192 12707.266070 1972.662309
