0.000000 15030.000000 2737.000000
15660.000000 15120.000000 2307.000000
15228.699347 15261.863390 2040.495988
14722.245493 15190.849037 1951.805587
13902.884454 15377.881288 1654.325614
8749.012886 15129.031511 1539.028296
7908.916604 15234.040377 1589.256981
7090.391104 15136.994193 1690.753691
6757.448004 15132.650756 1666.774472
6179.787397 15230.875858 1715.292405
5738.630144 15202.884102 1840.172138
5301.432946 15246.010035 1835.480113
5116.605945 15121.038430 1821.794453
4879.877299 15228.081237 1861.958198
4653.907168 15193.653673 1875.471014
4471.137865 15184.355856 1926.341785
2252.320425 15252.922934 2061.671942
1638.483439 15189.889684 2249.812175
1195.966357 15165.248171 2426.279592
275.621055 15207.641560 2655.312177
0.000000 15120.000000 2730.000000
15659.339497 15209.615637 2217.392548
15442.084998 15132.474545 2173.828050
11491.399549 15454.233672 1465.178779
10717.715471 15007.337965 1481.669666
10067.856512 15489.098671 1552.374914
8869.855424 15382.920883 1580.532313
8520.868180 15269.419576 1547.820643
8143.664902 15350.710322 1560.023067
7756.245334 15440.132428 1576.684272
7198.778647 15335.026978 1625.462486
6604.239932 15595.605376 1757.946770
5623.629992 15288.464109 1784.942398
4253.670039 15335.351770 1860.389099
3977.733687 15312.148584 1913.856396
2140.061606 15400.229338 2105.763617
668.260737 15407.586066 2519.165159
15659.819514 15300.045376 2181.580870
15458.376207 15306.931255 2106.809347
14804.611703 15307.368451 1945.257820
11783.463617 15344.351918 1444.201623
7424.109864 15294.464189 1700.949187
5490.543563 15494.525633 1772.576418
4650.876502 15315.457766 1870.034544
4610.162935 15447.278154 1811.446262
3309.364336 15386.333936 1934.212603
1924.893549 15387.996796 2114.105367
1601.751554 15379.515210 2170.949120
1392.550171 15378.315328 2258.380969
15660.000000 15390.000000 2225.000000
14616.615380 15301.900958 1839.847915
14379.796136 15515.416194 1757.716188
11006.240444 15515.406998 1484.359260
10635.259357 15626.368021 1537.957250
9789.952287 15756.426300 1581.712672
9406.047640 15326.112507 1558.248078
7547.137008 15532.881349 1596.335518
6955.392332 15544.393832 1724.422657
5666.582714 15442.443107 1745.987680
5310.399130 15389.279554 1774.651654
5000.119297 15404.585266 1785.295278
4866.013430 15484.286401 1788.972679
2948.653699 15411.262204 1981.146326
2711.202406 15322.024968 2009.832824
2303.745683 15455.638584 2134.735005
950.967889 15258.628542 2470.261986
2.240068 15274.192478 2750.346874
15659.941400 15479.900338 2263.121563
15459.239022 15572.173439 2147.647817
14704.559256 15475.344209 1942.644451
11919.067979 15508.679360 1473.422858
9311.269423 15683.187635 1593.019083
8575.154152 15623.085328 1627.914613
5852.485793 15320.807107 1733.096661
4215.869550 15582.523176 1825.744122
3988.187006 15684.524791 1833.882517
3067.332323 15482.075268 1996.842486
2525.610221 15479.429728 2094.037913
2218.356010 15538.968525 2139.364906
2111.952979 15583.078375 2157.028865
1718.225100 15569.075675 2235.263152
1528.106755 15517.275003 2207.100569
1277.424265 15566.851902 2307.781858
983.073404 15590.408993 2393.495557
0.387549 15503.064981 2773.442615
15660.000000 15570.000000 2248.000000
15333.679716 15899.177725 2144.219889
14907.665464 15622.119769 2066.406785
13175.845265 15578.606510 1549.964761
12606.763039 15432.988424 1491.662162
11999.852150 15828.943830 1450.534681
8955.135749 15932.233930 1649.517361
8205.778254 15744.675761 1678.421561
6294.677550 15621.645319 1802.258520
5824.589903 15745.617739 1792.831412
3696.107804 15581.158572 1897.592478
3162.853886 15599.558854 1975.981934
2902.001000 15614.969920 2024.929971
2782.940692 15534.971321 2002.931447
840.284968 15652.858932 2422.735935
15660.000000 15660.000000 2258.000000
14152.027369 15800.242816 1734.560283
12793.421465 15825.660124 1509.154115
11509.554011 15930.475094 1463.088994
7450.598258 15766.949572 1711.493748
5548.633132 15847.159692 1838.882598
5055.766485 15841.902215 1863.433590
4564.105797 15863.197367 1884.962942
2507.562079 15643.488313 2038.682629
2163.303589 15688.995602 2135.692788
1603.410802 15699.330838 2292.573424
1181.277029 15663.200948 2346.801875
557.503037 15819.624087 2592.824265
441.862925 15542.467891 2592.060437
0.000000 15660.000000 2779.000000
15658.054999 15746.328695 2296.787714
14700.087883 15763.900384 1948.777439
12498.166467 15987.988479 1516.659290
9527.948639 16000.106251 1639.133156
8434.006900 15839.484005 1645.871770
7213.725139 15911.465799 1803.568823
4217.436166 16004.818980 1892.347431
3652.293445 15871.485291 1853.647139
3259.305945 15730.135126 2002.821810
2987.208908 15715.354900 1997.683041
2750.385930 15710.075005 2038.662941
1780.250837 15739.856879 2218.085485
1416.064667 15759.228192 2374.106137
316.802180 15770.543561 2632.422373
1.089274 15747.822566 2804.658650
15660.000000 15840.000000 2303.000000
15135.560037 15941.708487 2137.707739
14337.273071 15813.657532 1752.150305
13558.142940 16001.273442 1599.529317
8250.097428 16003.085521 1691.400832
6708.403736 16045.985799 1887.293307
6432.977640 16032.155851 1878.256713
4472.078511 16105.371610 1942.967508
2979.872082 15880.827079 2010.834166
2689.671907 15833.850153 2080.874020
2437.574410 15915.632841 2126.175694
2370.033995 15815.310448 2090.108412
1996.287140 15903.008998 2158.591258
1794.027846 15896.431126 2224.471946
1273.569870 15916.667155 2482.639906
1041.666903 15986.812854 2540.368574
856.564641 15947.791263 2515.247853
152.606840 15889.758355 2718.624353
15660.000000 15930.000000 2305.000000
12074.357393 16116.105117 1484.451677
10804.905910 15901.091012 1544.538489
10310.119484 16184.842018 1599.741848
8569.062124 15901.308455 1669.588641
7914.342212 15946.558473 1752.443724
7314.404455 16041.234183 1793.012258
7070.318435 15959.866213 1826.008028
5791.124503 16065.758397 1897.744555
5431.240845 16158.977646 1940.584988
4720.645155 16039.954956 1914.436227
3358.061281 16100.010096 1873.584689
2797.375505 15913.392526 2037.956477
2705.449230 16142.868790 2058.171799
2130.841300 15826.846863 2108.948396
1248.980361 16021.765581 2503.760746
670.330539 16110.329758 2637.612545
342.309789 15997.865839 2701.329555
15660.000000 16020.000000 2338.000000
15464.734044 16103.522168 2266.736565
15129.943594 16144.693120 2053.350069
14828.232363 16026.330648 1997.248501
14540.586240 16336.286067 1797.546246
11005.295429 16110.710793 1507.091751
10099.866154 16315.328224 1626.452564
8659.912811 16307.874040 1692.226737
8360.186015 16152.120997 1738.144938
1805.359044 16100.982720 2228.057448
1551.436194 15979.318573 2366.089582
1350.000000 16020.000000 2405.000000
986.301956 16209.023059 2552.901078
3.404825 16132.267774 2900.177011
0.819121 15927.343627 2806.207947
15660.000000 16110.000000 2347.000000
14294.338779 16083.898957 1732.547624
14015.876961 16323.822847 1680.237924
12908.471989 16428.565971 1527.132127
11904.695225 16247.519500 1444.680412
9578.825446 16311.205976 1660.562335
7743.615592 16226.571984 1818.398442
7264.728499 16350.900759 1872.385089
5143.702839 16318.387691 1944.106834
4028.342924 16220.198726 1954.077070
2133.699610 16053.032588 2183.341960
1641.085707 16115.557902 2288.231279
1400.309551 16184.188475 2404.656311
1221.880057 16261.336566 2484.295602
15660.000000 16200.000000 2312.000000
15328.565018 16208.085325 2161.401065
14157.028511 16213.983873 1733.564368
13872.373847 16013.049805 1677.716583
13455.733084 16379.891228 1585.873782
12441.045391 16370.143285 1496.948137
11755.776371 16334.893546 1461.707069
8969.663065 16404.391974 1728.986710
8213.837857 16322.786842 1770.503099
6664.125809 16260.926131 1917.570254
6237.960997 16301.294915 1941.977199
4903.520051 16416.972156 1970.716245
3680.235182 16363.244389 1935.415768
2975.894367 16160.297699 1969.866556
2544.454315 16271.915864 2117.779911
2384.717477 16137.142847 2109.575819
2159.076315 16238.753896 2143.424627
1898.984540 16233.640762 2178.293508
826.805775 16377.139578 2608.916470
465.627413 16356.816562 2747.689105
152.765393 16392.370928 2870.918217
15660.000000 16290.000000 2311.000000
15495.383007 16285.053701 2215.835356
15321.579165 16539.185907 2067.145491
11608.116430 16586.471435 1497.228840
10531.902346 16432.053040 1582.208167
9754.038781 16496.761215 1679.247211
8461.360045 16328.574181 1726.168308
7944.286896 16408.674553 1787.252972
7037.888580 16308.451042 1914.933934
6817.670745 16458.914912 1973.948103
5792.102655 16593.130694 2001.962277
4345.930982 16496.977744 2027.481264
3210.407957 16339.891259 1899.827227
2962.930590 16455.379201 1950.562373
2372.418302 16332.283954 2159.054141
1412.484756 16430.235734 2380.570700
0.000000 16290.000000 2865.000000
15660.000000 16380.000000 2339.000000
14772.281122 16335.306634 1936.673464
8013.098123 16555.742295 1827.969551
7658.124718 16452.170570 1853.825649
3539.983790 16481.383673 1975.944200
2706.590217 16499.569708 2032.958875
2239.424874 16442.192982 2196.385335
2041.522138 16500.808399 2263.594149
0.000000 16380.000000 2821.000000
15660.000000 16470.000000 2324.000000
14949.564390 16414.745566 1970.759686
14266.502877 16666.802705 1746.987975
9371.088715 16600.168875 1715.779571
6519.392432 16651.512996 2053.774950
6047.587401 16574.946036 1984.164771
3522.068728 16873.842777 2043.602414
1759.109819 16412.879881 2259.168451
1113.101218 16478.014112 2463.869501
199.002305 16656.669904 2776.796974
0.000000 16470.000000 2762.000000
15660.000000 16560.000000 2303.000000
13869.841281 16735.854099 1663.499770
13256.762206 16798.357334 1526.515918
12670.912169 16727.221664 1483.266750
12448.777213 16629.998107 1493.785247
12159.173080 16760.445257 1455.419812
10244.330158 16491.738318 1607.789642
8305.366629 16645.229341 1799.911866
7793.586960 16726.152992 1866.545089
7548.211693 16670.465062 1891.718567
4272.072484 16741.680681 2084.604871
1824.647410 16563.805442 2317.351908
1250.374887 16633.796528 2453.604412
925.248274 16728.333870 2567.506590
529.110742 16639.189340 2798.838933
15660.000000 16650.000000 2321.000000
12910.159832 16698.639446 1526.107434
10922.777569 16744.060376 1560.541732
6930.065254 16624.226961 1972.201929
5069.927947 16858.436483 2103.748288
4532.326501 16886.678951 2128.795513
4063.220295 16601.943214 2014.686362
3187.889247 16765.306815 1930.982157
2919.543855 16645.956986 1946.832763
2736.426414 16786.179721 1990.287126
2494.047263 16725.431647 2035.154489
2055.992506 16853.707495 2170.426465
711.193728 16586.562198 2714.731371
414.279592 16732.208018 2823.552872
0.667132 16558.990815 2716.798295
15660.000000 16740.000000 2308.000000
15652.151938 16875.328940 2307.337619
14735.944998 16650.890497 1897.581177
14652.021267 16859.152857 1849.244831
13691.947679 16918.326943 1606.060598
11710.300210 16918.685347 1516.046445
10390.683062 16955.114968 1649.582277
9234.334626 16624.241639 1762.697745
8099.386630 16853.940902 1854.084584
7469.160257 16906.967954 1917.940586
6199.194701 17047.846355 2117.978722
4736.591444 17003.811349 2125.445705
3933.002841 17096.218668 2118.315905
2404.332745 16799.849699 2081.440332
2246.015916 16738.990113 2106.883494
1617.207881 16653.803236 2344.338606
1334.907962 16770.493736 2414.852810
897.066099 16892.120585 2531.906135
625.201169 16864.423804 2755.749364
0.000000 16740.000000 2671.000000
15660.000000 16830.000000 2317.000000
15355.839603 16990.805519 2113.805323
14867.873397 16763.539023 1911.633531
11559.934699 17239.207406 1548.718970
9267.557449 16886.854126 1779.180176
8432.263575 16869.940819 1864.665377
7990.606426 17054.507018 1944.070790
6797.440591 16932.885308 2055.588192
6496.751956 17056.911921 2089.133353
5336.734269 17205.990139 2156.531759
4231.759705 17090.171518 2150.934464
2416.603865 17005.916653 2065.002457
1505.038564 16953.761122 2383.466539
1160.239326 16867.690522 2455.595533
375.285846 16856.795857 2716.176241
155.417665 16878.111938 2612.855970
15660.000000 16920.000000 2298.000000
15055.219688 16959.296342 2004.400685
14561.184235 17013.985775 1779.586251
14310.291761 16985.187378 1740.297942
13363.250928 17028.310237 1562.872395
12782.088753 16906.113295 1483.703141
9997.147747 16860.290714 1661.582447
8883.881729 16978.619988 1855.920994
7657.970578 17051.143181 1940.632882
7264.005368 16921.834868 1972.080635
5669.269964 16955.902728 2101.787164
3015.241298 16844.192407 1990.900126
1242.452860 17018.272184 2427.899581
305.270839 17258.465724 2535.885501
0.757347 16913.555065 2565.236687
15660.000000 17010.000000 2240.000000
11026.861994 17295.376242 1594.208867
10002.575571 17187.156356 1714.059678
9725.475114 16829.763782 1718.495798
9484.500866 17298.427376 1822.535747
8461.658634 17192.125249 1933.823052
3246.345659 17019.282454 1950.899382
3079.386310 17098.246030 1963.810150
2860.767771 17224.366983 2015.009178
1161.632530 17115.411306 2469.655497
668.984775 17048.642802 2692.868088
515.666192 17175.489137 2603.031866
14366.429175 17252.744160 1754.794049
14058.741311 17102.490995 1680.539368
14029.282388 17243.082837 1698.089824
12988.931811 17208.982921 1499.359928
12031.701297 17257.870671 1527.462910
11829.005549 17233.175389 1514.156010
10730.258951 17390.581177 1645.961865
9014.905892 17208.326566 1847.737933
7454.529704 17194.452168 1991.960754
7115.582094 17428.622154 2108.389189
6709.230876 17281.834662 2160.370168
4409.154805 16940.204827 2153.472936
3606.426538 17279.948229 2030.526439
2424.294256 17198.370168 2062.207534
1960.144007 17196.428070 2142.633177
1835.351990 17005.970182 2204.624986
1689.990088 17207.795105 2224.568617
1342.086341 17189.249702 2313.876526
827.886493 17120.012558 2564.925745
1.276384 17104.666954 2478.857774
15656.005020 17165.651729 2218.781375
14794.280541 17175.115664 1868.012710
10362.720072 17419.199695 1714.313223
9746.419831 17408.958179 1787.371571
7850.791405 17277.372821 1972.478951
6213.312045 17250.482591 2147.114858
5346.278144 17496.603686 2237.602156
4500.651628 17591.830479 2242.452082
3385.644002 17273.502447 1992.711572
3031.248705 17289.057380 1974.214756
733.964000 17250.189995 2647.476709
15491.868067 17442.061441 2046.560355
15338.459711 17281.210789 2097.767692
15017.157204 17333.115590 1973.607632
14684.679445 17507.218003 1882.722398
13381.075732 17345.167535 1546.347701
12823.216482 17468.206646 1448.053046
5968.364702 17577.034924 2264.585598
4808.486946 17316.070246 2214.571022
4277.242024 17480.406485 2240.338373
2394.288781 17399.681917 2117.960862
1475.999752 17403.134561 2269.865121
1228.199591 17373.721023 2347.562250
1007.940713 17237.196094 2519.178853
2.034653 17280.557707 2424.609431
15658.926269 17461.220337 2155.319544
15353.247815 17535.883307 1976.509653
14856.240266 17451.940223 1881.387638
13176.855698 17515.264629 1494.770968
12428.403364 17269.481824 1441.057050
12095.952242 17467.308610 1516.050357
9253.320891 17760.739985 1973.808438
8780.593123 17400.843042 1922.613662
8502.441073 17606.255039 2008.614013
8152.997009 17566.545119 2079.078354
6288.903904 17534.390254 2259.215468
4644.376442 17531.641207 2262.339000
3923.207779 17400.714252 2148.444192
2843.498589 17514.511055 1996.138093
1808.118138 17357.171168 2175.912630
870.762134 17450.295890 2574.296892
14591.906687 17686.749370 1871.691922
12879.040513 17723.090515 1437.716046
11303.402014 17637.175550 1609.741019
7472.290225 17629.215271 2095.346305
6854.647465 17509.340696 2162.009057
6718.729049 17786.585827 2267.583877
5239.853044 17706.942660 2273.879453
4910.657995 17708.801080 2277.345770
4025.880304 17640.458727 2155.894057
3399.975521 17590.128221 2029.113889
3103.014299 17553.991374 2038.821471
2307.822526 17532.968810 2139.537587
1988.303715 17455.266068 2200.362347
1817.522590 17556.144404 2254.762711
1200.658220 17506.745353 2374.257138
658.784833 17522.283835 2550.910971
435.460231 17505.640697 2530.369832
226.955042 17476.091246 2479.708218
0.000000 17460.000000 2397.000000
15660.000000 17550.000000 2114.000000
15098.987182 17731.167970 1895.868487
12286.595253 17644.607220 1512.409875
5638.839060 17740.055043 2321.081686
2623.340905 17708.776259 2033.672876
1384.830452 17619.321407 2393.470208
1060.515692 17600.650717 2431.758338
859.020736 17708.225963 2516.194836
541.441223 17690.521881 2475.927907
363.507301 17801.133533 2397.419459
0.003466 17548.484341 2389.176956
15660.000000 17640.000000 2084.000000
15531.537627 17759.267204 1991.399566
14789.256631 17729.823735 1801.057821
13868.594950 17542.233047 1632.150245
13570.609345 17636.047744 1559.484492
13359.902567 17851.243911 1498.191413
10449.227264 17922.114832 1734.667867
10116.682351 17663.276791 1768.473627
9702.117497 17771.462982 1881.940594
3916.335734 17958.174905 2189.790113
2287.971325 17842.869071 2082.287425
1697.725056 17670.642170 2286.827344
144.742029 17763.281960 2320.699268
0.000000 17640.000000 2356.000000
15660.000000 17730.000000 2035.000000
15308.583998 17783.883321 1903.005680
14482.308201 17805.486378 1819.248203
13918.127666 17978.029408 1597.967557
11714.401751 17787.719814 1564.960092
10895.380892 17887.208973 1655.861282
8844.086938 17999.237431 2113.070817
7813.484138 17674.008224 2102.015053
6245.371910 17927.140462 2337.598348
5832.549929 17658.737229 2269.117800
3105.749019 18103.744824 2117.164426
1503.040734 17863.675120 2289.727586
1341.670252 17845.399009 2376.416607
1117.046211 17820.703095 2470.557732
828.613272 17849.382174 2543.747217
719.540400 17818.334583 2556.951231
0.000000 17730.000000 2369.000000
15660.000000 17820.000000 2011.000000
14690.829116 17913.313056 1761.564215
13151.778264 18294.707403 1440.527858
11337.706564 18170.549789 1631.832012
10244.594083 18073.464805 1809.580673
7167.690948 17782.603326 2197.288868
6446.325484 17936.857930 2370.277789
6048.658374 17926.767707 2323.528909
2806.041533 17880.707244 2042.752293
2118.152617 17963.398759 2102.333000
1985.629795 18069.515846 2122.170235
541.407144 17900.408322 2480.379191
181.994182 17909.865607 2295.607564
0.000000 17820.000000 2407.000000
15660.000000 17910.000000 2004.000000
15391.949282 17987.696960 1927.807242
15170.999303 18021.752797 1830.194489
14929.898114 17983.774620 1826.865648
12371.856455 18211.163478 1519.415357
11983.603937 18154.967646 1565.204146
10188.930114 18241.742323 1824.985898
9086.204954 18004.118631 2072.167586
8349.020423 18143.320188 2198.734358
7757.590762 17987.614014 2221.705116
7487.925953 18064.114295 2223.734914
6576.178561 18152.018296 2387.604347
6052.413428 18201.416969 2406.954685
5299.861699 17863.386403 2337.752763
5204.527892 18296.990931 2447.728712
4836.107257 18078.207183 2395.010486
4464.112021 17975.469789 2308.576973
3508.105002 17839.224375 2100.701549
2712.709341 17909.197524 2062.785359
1392.818210 18055.467331 2294.603913
1116.387102 18001.122024 2359.668653
0.000000 17910.000000 2418.000000
15660.000000 18000.000000 1983.000000
14550.935180 17968.588817 1787.622065
14330.939347 17769.495879 1724.532233
14300.142907 18148.471157 1689.263635
12604.723065 17843.569649 1498.172241
12739.545735 18204.280395 1484.663476
9822.915230 18231.047000 1963.915642
5580.553331 18027.378776 2370.900743
3880.243911 18309.428324 2262.227252
2395.566708 18002.558466 2116.077693
991.184173 18172.259160 2358.738595
831.833616 18085.152069 2483.681729
663.787025 18025.978424 2477.821902
15660.000000 18090.000000 2000.000000
15063.013771 18100.118170 1774.562650
14900.234454 18160.646690 1771.495684
9329.350512 18115.124993 2041.321573
7177.951499 18073.298608 2301.146755
7011.878344 18339.742522 2383.986941
2586.630067 18063.228464 2059.443360
91.509348 18236.673749 2335.659596
15660.000000 18180.000000 2038.000000
15658.757663 18241.843872 2052.076116
15230.950102 18285.413759 1918.967764
14636.264819 18248.188281 1707.529598
11589.423383 18455.637510 1625.955116
10842.696049 18323.091396 1678.276548
9176.225896 18251.388097 2112.911863
7372.611497 18443.999196 2380.365349
5583.601540 18311.760036 2467.355701
2752.342553 18332.139681 2130.486200
2464.266032 18180.589613 2092.901248
1761.834524 18153.734110 2159.246995
488.438063 18196.291570 2371.479472
213.210225 18339.294718 2242.906961
0.077277 18027.414128 2391.664254
14923.544091 18270.710482 1734.773248
14755.863465 18381.613097 1701.262445
14286.125245 18434.820792 1630.106555
13668.363683 18121.935461 1534.915797
10620.058952 18569.140120 1725.759160
9540.265169 18406.654010 2052.939581
9081.434462 18479.767146 2157.053182
8029.259128 18256.607900 2293.134903
6052.249586 18570.336473 2496.732650
4509.339624 18621.953598 2447.427830
2365.263313 18410.533897 2145.424408
2073.567135 18279.032814 2183.261053
1470.175580 18268.778334 2209.342671
1147.377521 18304.817744 2282.850209
907.195988 18322.049664 2365.588273
831.071973 18388.204527 2428.661787
712.084827 18283.356311 2462.239585
13872.076152 18419.290887 1575.609813
10113.207941 18351.393588 1904.821962
8601.873349 18472.818538 2257.415444
8170.132975 18579.505199 2348.939272
5658.307868 18433.986397 2482.348585
5028.365125 18489.975758 2483.533130
4654.587989 18362.730977 2422.195246
3171.533624 18453.088201 2170.277720
2569.354602 18454.495384 2096.574684
1718.468326 18424.658984 2241.941704
1378.767030 18495.194531 2309.739193
166.165760 18440.867241 2244.421841
0.114176 18352.414948 2300.265528
15444.381211 18625.444353 1977.737693
15088.995453 18403.281183 1860.074626
14624.002529 18451.059996 1657.759550
14437.346933 18456.500050 1620.501893
11285.897196 18711.327023 1678.318434
10170.000000 18450.000000 1931.000000
9955.732575 18458.101631 1996.116075
9788.098382 18447.296515 2074.243664
9524.200950 18523.698995 2054.181414
8749.209229 18501.328711 2203.206633
6659.862277 18662.451267 2525.632183
5003.010484 18796.492273 2547.339100
2071.640890 18538.069143 2242.717560
692.499220 18623.965612 2490.857571
0.000000 18450.000000 2249.000000
15660.000000 18540.000000 2016.000000
14877.782749 18551.134943 1845.477175
14310.991602 18588.812875 1581.729476
13124.406040 18635.177101 1436.921772
12405.507638 18712.113189 1531.858040
10269.553886 18536.234455 1818.380838
9900.000000 18540.000000 1936.000000
7670.565300 18584.780058 2433.598477
5890.539151 18596.658650 2542.589213
5445.420869 18833.499632 2605.852938
2988.741441 18582.750243 2182.795228
2411.917482 18609.846587 2132.726664
365.200095 18596.953416 2372.870262
153.005514 18622.350992 2302.606097
0.000000 18540.000000 2248.000000
15660.000000 18630.000000 1995.000000
15179.446864 18797.448446 1958.941966
14463.935666 18634.209898 1645.651875
9994.072463 18628.827556 1909.722230
9014.505704 18653.616304 2187.759040
8404.378692 18686.059685 2278.128397
7402.484315 18751.241159 2516.821738
7158.385413 19025.290610 2600.324844
6450.414526 18840.548059 2582.998926
5782.146696 18778.686864 2604.550866
4361.343949 19021.821052 2475.562788
3595.753423 18467.694125 2205.646722
2573.792565 18727.657845 2171.893082
2235.595720 18715.010703 2171.804919
1869.466242 18703.754779 2289.987815
1105.716502 18589.018926 2405.649118
0.000000 18630.000000 2275.000000
15659.879124 18804.603063 1981.793804
14818.850845 18728.527024 1867.714394
11914.489870 19116.480069 1598.237227
10403.505664 18729.431618 1796.956162
9713.429641 18778.654087 1959.576465
8926.536086 18910.364355 2178.358587
4002.185127 18809.244748 2330.796871
2841.851453 18774.385605 2220.593637
2437.149355 18903.823482 2158.749513
1573.052135 18756.299360 2363.243105
1415.926917 18866.285379 2434.555338
0.000000 18720.000000 2312.000000
14688.860471 18857.588824 1789.841010
14473.934912 18989.398569 1638.565251
14028.809653 19113.705189 1546.539528
13953.180787 18728.526509 1539.779186
12633.572675 19019.260223 1496.539655
11031.371544 18917.056343 1715.808034
9683.363500 19054.078732 1956.994391
9373.235429 19003.166325 2068.442240
9142.077887 18908.801857 2151.358478
8575.576298 18974.321558 2287.130002
8172.485883 18811.921035 2378.899649
6211.890476 18946.904521 2610.181846
4838.741629 18988.092294 2569.042883
2075.620091 18867.980923 2200.578912
1705.101928 18861.479266 2303.113257
1267.688413 18822.495212 2462.695318
1035.063679 18946.634887 2538.007058
667.736075 18816.139925 2547.306950
346.229878 18844.046290 2442.888535
79.982038 18834.591348 2376.481993
15659.912549 18990.000505 1935.343467
15466.032334 18861.615660 1938.073035
15251.258041 19038.777521 1906.069312
13434.272121 19070.000528 1462.538581
13184.042516 19265.376182 1428.566422
11735.879416 19246.378739 1601.584720
7393.591138 19073.154974 2604.674368
5547.517490 19071.360115 2715.054476
2744.572512 19102.977372 2243.692047
2374.060397 19061.849402 2177.783546
2255.762555 19018.681149 2221.212556
1439.742097 19055.222640 2518.092051
0.350964 18902.558389 2349.834786
15400.808560 19081.852863 1933.683527
14938.861881 19047.977740 1876.940342
14733.029367 19014.021404 1789.921716
10142.144956 19074.413613 1857.612199
8386.936355 19060.424112 2308.879080
8255.555885 19061.200853 2386.356942
7784.951706 19149.286800 2536.013825
6547.782495 19197.592899 2738.063933
5896.159869 19084.145250 2687.761964
3876.484322 19126.223264 2394.828187
3331.998371 18841.538031 2259.563935
3032.088096 19045.334702 2277.815680
2050.281674 19085.862374 2241.774937
1793.462938 19047.993995 2316.528417
1622.840873 19081.262460 2401.328644
1338.376267 19077.529484 2509.639156
946.584269 19096.747262 2630.492715
315.366874 19088.395423 2362.271816
15660.000000 19080.000000 1899.000000
15545.088954 19075.898382 1941.948405
14412.948558 19160.434107 1654.612543
12915.848600 19389.764084 1460.238082
10675.629377 18938.893992 1773.546079
9125.920524 19418.506021 2142.765830
7135.015790 19507.564565 2707.877925
6810.764354 19124.989897 2681.222729
6136.361006 19331.026292 2706.169655
5304.981476 19205.669930 2651.365523
4743.762589 19136.876396 2530.709015
2589.513693 19217.268498 2264.461437
2112.540768 19177.726996 2256.403001
1240.548625 19091.645939 2554.293624
0.991985 19056.073613 2280.586815
15659.941120 19177.474437 1902.832516
15320.062936 19196.554465 1928.240580
15185.841958 19175.416671 1858.542568
14915.106349 19166.764569 1828.272425
14756.390890 19222.932125 1844.215213
14292.895561 19519.385059 1587.015874
11287.233839 19110.831952 1655.200510
10691.418038 19436.679795 1774.930096
8414.701938 19251.846815 2317.759986
6302.718485 19223.794081 2668.814841
5789.182683 19244.739805 2770.692112
5179.198735 19376.697495 2687.805366
2993.602509 19510.475677 2371.304501
2255.798728 19183.220721 2200.192097
1874.267748 19239.841573 2270.605918
1588.654130 19166.544335 2360.327647
685.104445 19165.436702 2534.725143
0.000000 19170.000000 2233.000000
15570.000000 19260.000000 1886.000000
15537.678070 19361.454159 1910.349604
14894.746090 19368.958026 1739.576869
14700.266986 19298.587778 1807.694971
10284.533976 19305.356219 1849.705151
8803.153814 19378.502373 2212.659112
8379.047104 19463.496168 2362.927553
3842.662213 19536.531458 2476.622518
3487.283088 19330.501247 2414.361593
2037.031938 19348.957603 2314.602043
1549.507076 19369.503513 2357.878662
1103.416996 19274.476472 2657.014562
15660.000000 19350.000000 1894.000000
15335.168889 19411.760648 1879.283153
14639.874847 19387.247434 1780.530915
13776.749819 19339.516549 1477.303827
11227.557559 19501.220456 1669.365407
8160.036198 19508.204811 2426.653060
7765.245542 19484.550323 2579.247898
7614.750733 19352.682330 2568.450407
6683.590507 19455.605127 2776.891675
6466.113556 19470.968704 2801.994766
5699.932400 19431.192482 2804.009013
5005.113644 19552.568246 2689.960547
4621.626451 19504.803237 2582.348506
4349.313397 19529.439776 2531.153015
2562.536859 19435.701766 2260.369618
1401.424184 19243.807869 2462.638043
1196.365274 19506.926407 2572.069961
1033.342233 19493.343780 2635.664029
818.476257 19438.273175 2523.804653
550.441566 19402.967705 2425.203429
1.403516 19292.373981 2197.340202
15660.000000 19440.000000 1866.000000
15059.001371 19613.471911 1802.809535
14561.752573 19440.764488 1760.125501
13669.270737 19572.191139 1450.562347
12425.152080 19533.346449 1511.190908
11783.415427 19612.838639 1586.203162
9915.309612 19375.010307 1942.911460
8876.118432 19535.657641 2189.246190
7468.651306 19563.792290 2648.245295
6935.007676 19489.395423 2758.413612
5538.925895 19511.973817 2798.178322
3406.953720 19510.404761 2427.224471
2228.881000 19572.295270 2241.652001
2160.000000 19440.000000 2226.000000
1888.480839 19441.760714 2332.380441
1425.590174 19517.297962 2469.081053
618.909666 19599.183069 2506.339951
189.495467 19411.721470 2247.012359
15660.000000 19530.000000 1849.000000
14788.938983 19655.110154 1678.562342
14754.037918 19503.431771 1695.426363
14103.978752 19667.958740 1533.359430
9573.788963 19606.717615 2006.573791
8616.711272 19586.053658 2261.676944
8029.232617 19664.749875 2462.978288
7700.414218 19732.535107 2648.120796
6237.526149 19530.568157 2765.681372
2461.703238 19686.649244 2308.099007
1754.629513 19530.533779 2378.880389
859.054830 19670.651698 2548.956966
15658.042026 19651.354457 1804.916678
15565.881661 19700.037091 1847.413353
14387.358099 19616.806907 1572.181152
13464.953309 19767.868130 1442.595456
11419.304977 19628.937082 1660.287454
8507.308829 19759.011029 2214.783106
7358.287473 19684.143345 2714.367968
6448.068974 19763.253647 2723.833136
5943.899235 19589.343232 2797.044982
5506.518372 19691.352743 2771.884253
5274.292411 19734.466810 2741.497915
2779.597063 19712.252889 2335.374381
1940.474144 19746.007097 2294.068524
1653.604132 19677.689365 2376.099424
1442.374714 19615.086160 2493.719481
1178.918869 19709.068109 2624.470423
978.950140 19763.186840 2615.324953
509.526252 19746.654329 2489.258571
290.609131 19816.706214 2501.621359
0.298158 19515.012897 2329.829517
15474.106445 19749.460499 1825.577531
15002.142474 19824.730444 1748.543260
14596.149733 19687.267917 1632.214192
14373.832071 19839.249748 1562.520097
12522.891641 19971.843624 1485.121146
11719.109963 20010.375271 1595.728566
11513.992992 20048.469448 1654.657563
10877.902858 19719.882586 1732.444308
10577.330039 19746.409653 1771.180176
10109.427265 19620.604190 1890.269633
9545.323203 19922.146231 1973.903386
9307.459274 19938.041002 2011.036561
8251.934957 19817.894223 2269.701130
6254.186248 20102.289852 2654.073118
5939.403001 19882.478375 2744.761051
5621.232372 19908.172594 2701.887293
4385.094741 19830.488217 2627.393815
4098.788126 19744.468890 2600.545139
3268.996175 19864.440531 2500.518925
1530.000000 19710.000000 2404.000000
1339.054524 19794.065314 2533.066325
0.000000 19710.000000 2406.000000
15660.000000 19800.000000 1752.000000
14715.562254 19876.000375 1726.422045
13383.343030 20168.405334 1424.471394
11231.359542 19847.140779 1704.206700
11281.171760 20092.568698 1720.716729
9741.898219 19886.428052 1917.775550
9001.361272 19764.060578 2080.730629
8803.700687 19900.088194 2128.366835
8062.361390 19848.252791 2419.053679
7838.176189 19962.070524 2532.393625
7616.017900 19892.186173 2656.875475
7348.732832 19875.261479 2649.410329
6792.849499 19924.136010 2677.646259
5045.243528 19814.232572 2759.980018
4672.488817 19892.548110 2749.186531
3069.305989 19892.194345 2503.571773
2462.982875 19993.373433 2362.231298
2182.928945 19918.996314 2315.750632
0.000000 19800.000000 2421.000000
15660.000000 19890.000000 1715.000000
15424.545121 19925.334995 1770.289147
14197.895125 20010.273058 1540.556065
13896.091304 19914.855495 1476.047848
10672.038145 20061.939117 1845.109945
10215.502089 19861.799945 1838.377674
8618.361773 19972.640205 2187.552609
7740.000000 19890.000000 2637.000000
6542.237000 20157.047905 2644.129573
4889.815201 19948.517137 2730.959221
3955.444190 20023.709105 2673.980961
3619.205294 20114.371057 2606.034555
2914.743796 20044.397260 2434.944298
1816.646400 19978.811790 2356.145510
1562.194348 19873.687393 2390.898840
1138.855659 19937.242650 2534.233599
902.751666 19962.398427 2666.600365
215.743459 20064.618752 2505.005752
0.000000 19890.000000 2426.000000
15660.000000 19980.000000 1695.000000
15252.894996 20233.273457 1728.158810
15046.282377 20222.569243 1722.057496
14549.789811 19979.836181 1656.775012
12654.433967 20559.952933 1453.200411
12143.194007 20259.588436 1503.794716
10298.189634 20139.038712 1917.150965
9823.364270 20149.269738 2002.742776
8506.685924 19998.254142 2202.838536
8359.954855 20170.122311 2321.545750
7463.653587 20096.683553 2632.484688
5118.452021 20128.837567 2704.887175
4578.366628 20057.389766 2764.991033
1441.885235 19987.242320 2427.227816
728.904895 20046.067235 2655.706966
605.470248 20033.632913 2656.050022
385.541237 19991.789434 2598.303025
0.000000 19980.000000 2418.000000
15660.000000 20070.000000 1688.000000
14333.416663 20213.510597 1601.733812
13997.429076 20182.104415 1491.602080
7967.290895 20184.671509 2528.018144
7019.292351 19834.585690 2657.594252
5746.783483 20032.151359 2712.961434
4728.240547 20170.750375 2677.622977
4378.039794 20060.181332 2695.927568
3322.384313 20232.450382 2600.397075
1564.429163 20227.382887 2521.989239
1300.808017 20138.461241 2543.136121
1033.464936 20144.848103 2669.238105
0.000000 20070.000000 2420.000000
15659.403158 20156.404584 1653.663445
14858.846542 20327.560113 1710.014967
14511.790750 20173.150368 1617.787378
11734.881543 20346.592190 1569.353538
9065.324477 20116.724706 2181.601947
8116.705030 20219.282404 2403.286670
7252.076760 20358.281989 2583.257252
6928.007400 20295.118958 2582.859944
5854.751646 20396.041185 2643.153135
2790.403542 20281.076570 2545.224172
2382.776803 20330.265749 2429.567658
2080.570078 20327.157998 2382.353893
1978.795176 20106.407147 2389.957068
908.374937 20227.882653 2722.088439
453.722509 20173.325392 2588.459572
0.000000 20160.000000 2431.000000
11181.850985 20336.689989 1709.680043
10674.170390 20345.856671 1831.152366
9601.865360 20223.991733 2076.063770
8003.646895 20330.896246 2526.810252
7683.214233 20161.195923 2571.474485
4478.635930 20207.357629 2776.454783
3965.459156 20432.496462 2913.649140
3205.899246 20390.236376 2614.453133
3079.433152 20421.649561 2665.796592
1858.723510 20286.280836 2441.250363
1244.122704 20302.277258 2645.690569
1148.221477 20383.198012 2811.815708
543.387245 20343.808812 2537.365967
381.466010 20282.668311 2534.397674
109.852968 20291.163590 2412.721592
0.000000 20250.000000 2394.000000
15659.879475 20418.634392 1600.162517
14569.767604 20356.773717 1619.665519
14176.840198 20518.745377 1455.351658
10291.110129 20373.583974 2002.041588
9526.006313 20437.011901 2220.201970
9117.859278 20374.604501 2253.536048
8948.113755 20525.637466 2310.115960
8715.397871 20288.191720 2325.996235
7655.230319 20383.958234 2566.175244
6654.020397 20601.515498 2569.929880
5466.576410 20606.579076 2606.716252
5338.405958 20172.409006 2667.356418
5229.285586 20477.741102 2649.055011
5059.069652 20607.051154 2597.800488
4454.192882 20360.449883 2824.165152
4112.473409 20336.764964 2845.574791
3848.585094 20519.048287 2887.551372
2614.468668 20442.917698 2546.440900
1492.323186 20417.192990 2656.147204
1047.895080 20410.006214 2812.643108
941.700942 20487.018030 2727.857279
286.860914 20400.909203 2506.831498
14978.907072 20487.132446 1635.878146
14413.742921 20496.670160 1548.327329
12023.466886 20499.378474 1512.803141
11755.229248 20615.393215 1568.961159
11422.172466 20485.570886 1669.178573
9968.548238 20439.567222 2100.994902
9730.574843 20432.074746 2201.947975
8100.707117 20439.517750 2419.087373
7546.368205 20500.621145 2569.238501
6241.868837 20542.305439 2600.716987
4177.671720 20505.273521 2805.993931
3583.390540 20459.820496 2731.242931
3299.044040 20584.350516 2701.228990
1883.860541 20572.418803 2492.674711
1683.411581 20502.141026 2630.228413
1290.401061 20527.900281 2758.402432
812.678835 20502.300145 2690.855130
0.599334 20433.620578 2372.309674
15659.816573 20787.551683 1526.777273
15271.162281 20593.593681 1602.924891
13332.927363 20618.703403 1427.244967
11021.985427 20516.789227 1722.439496
10743.038977 20597.579386 1798.113680
10040.679761 20572.831220 2035.624277
9876.381432 20516.540639 2168.229060
9657.362523 20579.905512 2165.281337
9378.640626 20542.594041 2263.604414
8539.290103 20583.705273 2417.813831
8147.665652 20613.634257 2497.127293
7821.859096 20555.579835 2535.425763
7364.613486 20668.293588 2495.237524
7105.529153 20823.415661 2497.594127
4753.479905 20674.710701 2650.358882
4469.659607 20575.221184 2736.856471
2892.417083 20532.711500 2742.098171
2302.180038 20703.065857 2558.452194
1549.015704 20519.911291 2678.998519
764.732362 20603.072424 2691.407723
404.369681 20522.887716 2476.213523
151.129376 20522.227455 2460.661455
0.000000 20520.000000 2354.000000
14602.518283 20636.614176 1575.932865
12058.604982 20765.937465 1537.409465
11479.743492 20740.052680 1629.045077
11333.410598 20856.428037 1604.205890
10411.430178 20692.530190 1884.436001
10165.956584 20697.101733 1960.916866
9880.426095 20613.655775 2104.027107
9629.045886 20722.603152 2172.881458
9026.714122 20736.277872 2225.965280
6755.623268 20883.036748 2521.581336
5798.152500 20716.812640 2589.965957
4360.687331 20635.739121 2787.386158
3706.114911 20747.026667 2928.723186
2799.218137 20683.150698 2712.628617
2608.264845 20762.460407 2631.275502
1757.912565 20608.323686 2523.112363
1692.133323 20688.555491 2525.353821
1450.487875 20613.435352 2597.672384
1170.444405 20649.224061 2634.967636
924.850648 20633.787632 2643.540949
579.472064 20651.480571 2609.939923
158.443507 20615.023923 2419.971860
0.000000 20610.000000 2362.000000
14953.298917 20622.025877 1571.325535
14168.398322 20801.392440 1426.912263
12431.836501 20904.795666 1489.106583
10985.941674 20843.626253 1670.845425
9852.900232 20713.028589 2113.355881
9341.404929 20722.382288 2154.686541
8395.433291 20695.466117 2467.928906
8034.546629 20827.592107 2487.073138
7737.921407 20718.342384 2464.904390
7572.627413 20813.337363 2481.560075
5643.174114 20881.289835 2572.340787
3985.315562 20578.233291 2902.593877
3914.607861 20696.490660 2955.073857
3156.727515 20762.013662 2856.446547
2059.237424 20872.334298 2559.697382
1669.847670 20847.379174 2435.020161
1426.755369 20805.665748 2473.992360
712.510282 20678.511494 2619.606657
333.513935 20609.535824 2490.091559
263.769064 20881.143796 2529.826409
0.000000 20700.000000 2410.000000
15307.411962 20874.082499 1531.957380
15210.083862 20760.747622 1583.588935
14992.930345 21059.803221 1491.211756
14832.003054 20877.266329 1520.711260
14497.451738 20839.147347 1503.700831
10738.057962 20841.462843 1754.551712
10403.079145 20927.386689 1782.261161
9495.566882 20975.131298 2059.119763
8911.230814 20828.914864 2286.117128
8909.577229 20981.019348 2313.953602
8308.829994 20844.861545 2440.855588
5319.098873 21074.220276 2552.768487
4691.559015 20838.486820 2641.809730
4372.824072 20870.495481 2790.097508
4143.931536 20856.637545 2916.480079
3595.518637 20934.086505 2975.873115
1859.280151 20854.126185 2478.798113
1710.000000 20790.000000 2432.000000
1046.596153 20834.518290 2490.452677
753.966346 20891.478539 2486.485443
554.858467 20820.511332 2592.905154
399.922636 20850.211588 2559.541330
0.000000 20790.000000 2435.000000
13775.265080 21019.497040 1420.511704
12118.353928 21140.983947 1486.425902
10095.732654 20946.534246 1870.888980
9905.272580 20951.013782 1968.018991
9841.887144 21101.616859 1875.145751
7724.593484 20966.397884 2435.332562
6000.850202 20880.925279 2526.019386
5130.344004 21172.282333 2570.934880
4159.150089 21117.282948 2745.962408
3410.478714 21021.713172 2991.894200
3193.048548 21002.285060 3006.247333
2966.948123 20954.832683 2886.744428
135.722442 20987.585893 2485.067880
0.000000 20880.000000 2424.000000
15659.943284 21056.295365 1518.071401
14513.744883 21110.129460 1472.097315
12618.099571 21291.972610 1442.679899
11703.839594 21054.391625 1562.806006
11311.869480 21049.512496 1611.528406
9742.294034 21113.908246 1949.961413
9118.023194 20982.656152 2210.349325
8456.567935 21055.859465 2416.233999
8297.442296 21116.789164 2425.737731
6842.881835 21231.849523 2455.787585
6341.278321 20984.877397 2530.421912
5759.489436 21040.591272 2521.469923
5545.735027 21085.316990 2540.277045
4745.684664 20979.805113 2647.855297
4513.667573 21045.606028 2702.899662
4422.593510 21130.318418 2760.292665
4324.574862 21037.033631 2766.655964
3881.286617 21043.598058 2875.073606
2668.513527 21054.591628 2840.511582
2434.408342 21095.515853 2850.330232
1938.549048 21078.665675 2542.099244
1439.859888 20963.656559 2392.925858
969.198472 21118.054994 2297.947121
576.964311 20986.066672 2446.718212
0.000000 20970.000000 2428.000000
15476.069782 21108.559638 1486.287355
10388.376701 21082.089935 1752.504014
10092.550151 21142.447026 1764.986363
7817.427080 21248.599036 2448.589362
6367.520323 21255.845545 2495.288253
5999.679333 21142.022312 2541.843599
4755.295341 21231.277421 2614.992516
3541.209674 21084.782687 2984.694891
2980.035566 21198.304946 3053.264277
1610.130125 21010.524459 2404.169738
1304.597376 21241.267371 2313.831609
658.061071 21199.006174 2300.937009
85.547604 21131.138657 2456.592226
0.000000 21060.000000 2423.000000
15660.000000 21150.000000 1522.000000
14252.891471 21388.458496 1430.094834
14133.121899 21616.905699 1421.217528
11751.961248 21280.068095 1500.060570
10807.607353 21086.820786 1664.375741
9453.336528 21157.424001 2052.494868
9140.393351 21143.865912 2187.724147
8976.639356 21298.602430 2287.952259
8775.278962 21195.007714 2391.140814
8557.099388 21246.445748 2447.457638
7978.190432 21178.831185 2425.659374
7694.526143 21354.004397 2424.732889
7094.560962 21258.244576 2454.558557
3896.838941 21216.983404 2799.898104
3733.925300 21133.000717 2906.487928
3392.944930 21191.242246 3082.004058
3294.268458 21186.402436 3113.801820
1649.287045 21246.313476 2400.651696
242.532583 21231.616735 2360.557402
15659.789124 21247.678052 1501.672176
15073.434037 21203.127484 1498.405650
13304.227567 21045.526098 1428.209155
10407.963164 21293.398866 1658.823027
10049.744298 21394.719627 1763.502476
9684.954040 21256.393332 1998.885868
9267.418494 21269.214792 2163.548951
8350.189245 21325.777706 2399.735826
7387.250182 21127.729559 2431.504517
6722.776878 21402.610202 2503.826052
6173.082218 21304.637810 2548.130554
5920.856469 21405.091978 2495.984820
5473.846974 21246.484228 2525.451365
4579.340116 21480.187438 2635.899213
3611.345845 21239.700419 2929.340947
2541.489891 21395.504927 3067.335488
794.242956 21424.686884 2209.459845
1.228518 21188.784514 2436.222826
15394.576477 21460.442694 1443.557515
14907.567616 21533.205690 1427.592128
10965.568726 21305.540530 1582.097947
9847.332334 21325.324216 1935.207688
9595.742434 21361.184126 2041.094933
9390.546246 21447.165910 2080.264111
8996.592122 21350.032879 2290.364973
8868.772003 21488.346741 2294.000467
8627.879894 21434.067937 2397.450034
8167.749437 21401.852539 2404.092349
7491.940993 21503.135328 2472.787499
4026.304603 21324.815867 2773.711808
3850.481751 21380.401987 2878.768221
3631.995420 21488.257536 2945.835763
3417.998567 21325.932623 3134.285344
3198.251004 21338.735531 3135.785336
2960.750097 21413.971213 3110.003069
1403.663511 21361.121842 2323.116981
1211.527585 21356.501922 2268.287924
455.256989 21258.346996 2337.832274
251.267415 21470.083194 2305.120016
0.000000 21330.000000 2418.000000
15660.000000 21465.000000 1468.000000
12139.717944 21505.061713 1472.655310
11690.413357 21501.038717 1498.200122
11404.818585 21390.249557 1519.490291
10290.743740 21521.007745 1656.933301
9817.722422 21427.644090 1913.542455
9636.161340 21634.723045 1946.541624
9138.030287 21545.290269 2083.929233
8990.328908 21503.360564 2196.775713
7455.354866 21737.300288 2455.442086
7015.673976 21545.816828 2517.955830
6368.418905 21432.092121 2501.586238
6164.887008 21537.785429 2490.302332
5025.520699 21533.196790 2586.492425
4138.401394 21463.261386 2710.538340
3402.485550 21502.048296 3106.236040
659.529034 21504.068257 2174.941191
544.549085 21488.362106 2217.559098
0.000000 21420.000000 2378.000000
10776.247957 21597.253370 1594.126496
8628.086384 21667.683114 2425.178455
7845.357751 21554.997980 2455.206789
6680.312289 21699.330193 2461.810691
5554.397363 21594.564635 2530.626528
4335.804252 21410.086324 2706.327624
3976.020667 21615.035880 2817.722248
2429.699817 21507.310480 3051.070682
288.491259 21759.965894 2225.980292
0.000000 21510.000000 2376.000000
15659.999654 21802.607161 1417.324717
15238.070360 21852.722526 1422.696830
12663.025727 21750.158164 1459.645505
12083.974707 21627.660434 1516.115053
11847.975703 21703.882082 1560.338774
11631.278358 21697.278563 1534.093496
11257.554782 21648.449349 1565.083279
10224.406128 21760.768500 1725.641333
9892.506763 21603.869545 1875.073810
9261.888873 21692.765002 1989.217764
8530.149344 21687.928778 2450.436611
8035.265776 21784.855789 2447.125158
4426.060850 21848.576027 2834.080501
3556.283680 21734.510071 3076.334191
2416.723732 21653.325737 3060.337942
2162.908888 21833.150176 2985.248113
1589.998593 21630.810784 2527.125889
732.911094 21601.603925 2184.095737
416.620468 21680.777559 2167.057845
13689.689848 22309.221488 1428.222538
11065.814468 21740.809474 1629.745358
10414.013243 21747.853160 1746.885600
9449.673467 21698.854331 1901.683958
8431.219727 21747.267781 2474.409615
6979.643018 21709.732851 2464.551195
6393.299412 21802.937482 2496.166369
6134.247976 21809.668399 2527.765074
4752.290413 21694.230817 2647.975355
4078.775846 21787.743820 2821.391846
3795.318638 21763.423062 2930.726304
3389.323728 21809.807726 3074.392745
2905.707522 21783.693951 3098.095110
2581.882308 21574.670843 3107.743108
1199.491113 21719.212362 2323.651195
0.361243 21633.226626 2395.704842
13081.305076 21800.902731 1442.561700
11430.892508 22063.472276 1489.174896
10850.893964 21777.515324 1649.218545
10649.269217 21781.443770 1669.201904
9993.330940 21768.988335 1761.060855
9678.850678 21832.730912 1844.525633
9045.677840 21928.374948 2126.399243
8840.777645 21710.174879 2277.624711
8640.000000 21780.000000 2335.000000
7828.253407 21773.315324 2429.803649
7250.383211 21761.580001 2511.346756
6911.795054 21903.917876 2462.899276
5866.530824 21924.804039 2532.205382
5191.413858 21843.187777 2595.668643
4913.284996 21925.648908 2623.833509
4559.829727 21852.812193 2801.381384
2368.171803 21876.208021 3075.034637
1760.946383 21912.091016 2773.732443
837.647075 21748.372454 2135.358572
582.147040 21791.378334 2092.100038
204.111917 21823.728054 2191.125932
0.000000 21780.000000 2256.000000
11118.747888 22005.772925 1520.295279
10355.350127 21857.462828 1781.528357
10254.542755 21918.834188 1792.607102
9989.003939 21962.141786 1837.876787
9348.334402 21981.354447 2068.683896
8727.864035 21957.234386 2281.197553
8332.789901 21917.819778 2463.672061
7981.646987 21906.435296 2476.818691
7438.894127 21859.908307 2475.821154
6701.075461 21982.880796 2474.508247
4737.706362 21919.234725 2697.179273
4265.795872 21922.392325 2869.108833
3607.770219 21934.319031 3081.213212
